1.002,1.002,1.002,1.002,1.002,1.002,1,1,1,1,1,0.999,0.999,0.999,0.999,1,1,1,1,0.999,0.999,0.997,0.996,0.996,0.994,0.994,0.992,0.992,0.992,0.992,0.992,0.992,0.992,0.992,0.992,0.994,0.994,0.994,0.997,0.997,0.997,0.999,1,1,1,1,1.002,1.002,1.002,1,1,1,1,1,1,1,1,0.999,1,1,1,0.999,0.999,0.999,0.999,0.999,0.997,0.997,0.997,0.997,0.996,0.997,0.997,0.997,0.999,1,1,1,1.002,1.002,1.002,1.002,1.002,1.002,1.002,1.002,1.002,1.002,1.002,1.002,1,1,1,1,1,1,1,1,1,1,1,1,1,1,1,1.002,1.002,1.002,1.002,1.002,1.002,1.002,1,1,1,1,0.999,0.999,0.997,0.997,0.997,0.997,0.997,0.996,0.996,0.997,0.997,0.999,0.999,1,1,1,1.002,1.002,1.002,1.002,1.002,1.002,1.002,1.002,1.002,1.002,1,1,1,0.999,0.999,0.999,0.997,0.996,0.994,0.994,0.992,0.992,0.991,0.989,0.989,0.991,0.989,0.989,0.991,0.991,0.991,0.991,0.991,0.991,0.992,0.992,0.992,0.991,0.991,0.992,0.992,0.992,0.992,0.992,0.991,0.991,0.991,0.989,0.988,0.986,0.986,0.984,0.984,0.984,0.984,0.984,0.984,0.983,0.984,0.984,0.984,0.984,0.984,0.986,0.986,0.988,0.988,0.988,0.989,0.989,0.989,0.989,0.988,0.988,0.988,0.988,0.988,0.988,0.989,0.989,0.989,0.989,0.991,0.991,0.992,0.992,0.994,0.994,0.994,0.994,0.996,0.994,0.992,0.992,0.991,0.989,0.988,0.986,0.986,0.984,0.984,0.984,0.986,0.986,0.986,0.988,0.988,0.989,0.989,0.989,0.991,0.989,0.989,0.989,0.991,0.989,0.989,0.989,0.989,0.988,0.988,0.986,0.984,0.984,0.983,0.981,0.981,0.981,0.98,0.98,0.98,0.977,0.975,0.972,0.971,0.969,0.968,0.966,0.964,0.963,0.962,0.96,0.96,0.96,0.96,0.96,0.959,0.959,0.959,0.959,0.96,0.96,0.96,0.962,0.962,0.963,0.964,0.966,0.968,0.971,0.972,0.974,0.975,0.975,0.977,0.977,0.978,0.978,0.98,0.978,0.977,0.977,0.977,0.975,0.975,0.974,0.974,0.974,0.974,0.975,0.977,0.977,0.978,0.98,0.98,0.981,0.983,0.984,0.984,0.984,0.986,0.986,0.986,0.986,0.984,0.983,0.981,0.981,0.98,0.98,0.978,0.978,0.977,0.977,0.975,0.975,0.975,0.975,0.975,0.975,0.975,0.977,0.977,0.977,0.977,0.977,0.977,0.977,0.977,0.977,0.978,0.977,0.977,0.977,0.978,0.978,0.978,0.978,0.98,0.98,0.98,0.978,0.98,0.98,0.98,0.98,0.978,0.977,0.977,0.975,0.974,0.974,0.974,0.972,0.972,0.972,0.972,0.972,0.974,0.974,0.974,0.974,0.975,0.977,0.977,0.975,0.975,0.975,0.975,0.975,0.975,0.975,0.975,0.975,0.977,0.977,0.977,0.975,0.975,0.975,0,0,0,0,0,0,0,0,0,0,0,0,0,0,0,0,0,0,0,0,0,0,0,0,0,0,0,0,0,0,0,0,0,0,0,0,0,0,0,0,0,0,0,0,0,0,0.323,0.322,0.322,0.321,0.32,0.32,0.319,0.319,0.318,0.318,0.317,0.316,0.316,0.315,0.315,0.314,0.314,0.313,0.313,0.312,0.312,0.311,0.31,0.31,0.309,0.309,0.308,0.307,0.307,0.306,0.306,0.305,0.305,0.304,0.304,0.303,0.302,0.302,0.301,0.301,0.3,0.3,0.299,0.299,0.299,0.298,0.298,0.297,0.297,0.296,0.296,0.295,0.294,0.294,0.293,0.293,0.292,0.292,0.291,0.291,0.29,0.29,0.289,0.289,0.288,0.288,0.287,0.287,0.286,0.286,0.285,0.285,0.284,0.284,0.284,0.283,0.283,0.282,0.282,0.281,0.281,0.281,0.28,0.28,0.279,0.278,0.278,0.278,0.277,0.277,0.276,0.276,0.276,0.275,0.275,0.274,0.274,0.273,0.273,0.272,0.272,0.272,0.271,0.271,0.271,0.27,0.27,0.27,0.269,0.269,0.269,0.268,0.268,0.268,0.268,0.267,0.267,0.267,0.267,0.267,0.267
0.997,0.997,0.997,0.997,0.997,0.997,0.997,0.996,0.996,0.996,0.996,0.994,0.994,0.994,0.992,0.992,0.992,0.992,0.992,0.992,0.991,0.991,0.989,0.989,0.988,0.986,0.984,0.984,0.984,0.986,0.986,0.984,0.984,0.986,0.988,0.988,0.989,0.989,0.989,0.991,0.991,0.992,0.994,0.994,0.996,0.996,0.996,0.996,0.994,0.994,0.994,0.994,0.992,0.994,0.994,0.994,0.994,0.994,0.994,0.994,0.994,0.994,0.994,0.992,0.992,0.992,0.991,0.991,0.991,0.991,0.991,0.991,0.991,0.991,0.991,0.994,0.994,0.994,0.994,0.994,0.994,0.996,0.996,0.996,0.996,0.996,0.996,0.996,0.994,0.994,0.994,0.994,0.994,0.994,0.994,0.994,0.994,0.994,0.994,0.994,0.996,0.996,0.996,0.996,0.996,0.996,0.996,0.996,0.997,0.997,0.996,0.996,0.994,0.994,0.994,0.994,0.992,0.992,0.991,0.991,0.991,0.991,0.991,0.989,0.989,0.991,0.991,0.992,0.992,0.994,0.996,0.996,0.997,0.997,0.999,0.999,0.999,0.999,0.999,0.997,0.997,0.997,0.996,0.996,0.996,0.994,0.994,0.994,0.992,0.991,0.989,0.989,0.988,0.988,0.986,0.984,0.984,0.984,0.986,0.986,0.986,0.986,0.986,0.986,0.986,0.986,0.986,0.986,0.986,0.986,0.986,0.986,0.988,0.988,0.986,0.986,0.986,0.984,0.984,0.983,0.981,0.98,0.978,0.978,0.978,0.977,0.977,0.978,0.978,0.978,0.978,0.978,0.978,0.98,0.98,0.981,0.981,0.983,0.983,0.983,0.984,0.984,0.984,0.984,0.983,0.983,0.983,0.983,0.983,0.983,0.983,0.983,0.983,0.983,0.984,0.984,0.986,0.986,0.986,0.988,0.988,0.988,0.989,0.988,0.986,0.986,0.984,0.983,0.981,0.98,0.98,0.978,0.978,0.978,0.98,0.981,0.981,0.981,0.983,0.983,0.983,0.984,0.983,0.983,0.983,0.983,0.983,0.981,0.981,0.98,0.98,0.978,0.978,0.977,0.977,0.975,0.975,0.974,0.974,0.974,0.972,0.972,0.971,0.969,0.968,0.964,0.963,0.962,0.96,0.959,0.957,0.956,0.956,0.956,0.954,0.954,0.954,0.954,0.954,0.954,0.953,0.953,0.954,0.954,0.954,0.956,0.957,0.957,0.959,0.962,0.963,0.964,0.966,0.969,0.969,0.971,0.971,0.971,0.972,0.972,0.974,0.972,0.971,0.971,0.971,0.971,0.969,0.969,0.969,0.968,0.969,0.969,0.971,0.971,0.972,0.974,0.974,0.977,0.977,0.977,0.978,0,0,0.978,0.978,0.978,0.978,0.977,0.977,0.975,0.975,0.974,0.974,0.972,0.972,0.971,0.971,0.969,0.969,0.969,0.969,0.969,0.969,0.971,0.971,0.971,0.971,0.971,0.971,0.971,0.971,0.971,0.971,0.971,0.971,0.971,0.971,0.971,0.971,0.972,0.974,0.974,0.974,0.974,0.972,0.974,0.972,0.972,0.972,0.971,0.971,0.969,0.969,0.969,0.968,0.968,0.966,0.966,0.966,0.968,0.968,0.968,0.968,0.969,0.969,0.971,0.971,0.971,0.971,0.969,0.971,0.971,0.971,0.971,0.971,0.971,0.971,0.971,0.971,0.971,0.969,0.969,0,0,0,0,0,0,0,0,0,0,0,0,0,0,0,0,0,0,0,0,0,0,0,0,0,0,0,0,0,0,0,0,0,0,0,0,0,0,0,0,0,0.325,0,0,0,0.323,0.322,0.322,0.321,0.321,0.32,0.32,0.319,0.319,0.318,0.318,0.317,0.316,0.316,0.315,0.315,0.314,0.314,0.313,0.313,0.312,0.312,0.311,0.311,0.31,0.309,0.309,0.308,0.307,0.307,0.306,0.306,0.305,0.305,0.304,0.303,0.303,0.302,0.302,0.301,0.301,0.3,0.3,0.3,0.299,0.299,0.298,0.298,0.297,0.297,0.296,0.296,0.295,0.294,0.294,0.293,0.293,0.292,0.292,0.291,0.291,0.29,0.29,0.289,0.289,0.288,0.288,0.287,0.287,0.286,0.286,0.285,0.285,0.284,0.284,0.284,0.283,0.283,0.282,0.282,0.281,0.281,0.281,0.28,0.28,0.279,0.279,0.278,0.278,0.277,0.277,0.276,0.276,0.276,0.275,0.275,0.274,0.274,0.273,0.273,0.273,0.272,0.272,0.271,0.271,0.271,0.27,0.27,0.27,0.269,0.269,0.269,0.268,0.268,0.268,0.267,0.267,0.267,0.267,0.267,0.267,0.267
0.992,0.992,0.992,0.992,0.992,0.992,0.992,0.991,0.991,0.991,0.989,0.989,0.988,0.988,0.986,0.986,0.988,0.988,0.986,0.984,0.984,0.983,0.983,0.983,0.981,0.981,0.978,0.978,0.978,0.978,0.978,0.98,0.98,0.98,0.981,0.983,0.983,0.984,0.983,0.984,0.984,0.986,0.986,0.986,0.988,0.988,0.988,0.988,0.988,0.986,0.986,0.986,0.986,0.986,0.986,0.986,0.988,0.988,0.989,0.989,0.989,0.989,0.989,0.986,0.986,0.986,0.986,0.986,0.984,0.984,0.984,0.984,0.984,0.984,0.984,0.986,0.986,0.988,0.988,0.988,0.988,0.989,0.989,0.989,0.989,0.989,0.989,0.989,0.989,0.989,0.989,0.989,0.988,0.988,0.988,0.988,0.988,0.988,0.988,0.988,0.989,0.989,0.989,0.989,0.991,0.991,0.991,0.991,0.989,0.989,0.991,0.988,0.988,0.988,0.988,0.988,0.986,0.986,0.984,0.984,0.984,0.984,0.984,0.984,0.984,0.984,0.986,0.986,0.988,0.988,0.989,0.989,0.991,0.992,0.992,0.992,0.992,0.992,0.992,0.992,0.992,0.991,0.991,0.991,0.989,0.989,0.989,0.989,0.989,0.986,0.984,0.984,0.983,0.983,0.983,0.981,0.981,0.981,0.981,0.981,0.981,0.98,0.98,0.98,0.98,0.981,0.981,0.981,0.981,0.981,0.981,0.981,0.981,0.981,0.98,0.978,0.98,0.978,0.978,0.977,0.975,0.975,0.974,0.974,0.974,0.972,0.972,0.972,0.972,0.972,0.974,0.974,0.974,0.974,0.975,0.975,0.977,0.977,0.978,0.978,0.978,0.978,0.978,0.978,0.978,0.978,0.978,0.977,0.977,0.977,0.977,0.977,0.978,0.978,0.978,0.98,0.98,0.98,0.981,0.981,0.983,0.981,0.983,0.981,0.98,0.98,0.978,0.977,0.977,0.975,0.975,0.975,0.975,0.975,0.975,0.975,0.975,0.975,0.977,0.977,0.977,0.977,0.975,0.975,0.975,0.975,0.974,0.972,0.971,0.971,0.969,0.969,0.968,0.968,0.968,0.968,0.966,0.964,0.966,0.964,0.964,0.964,0.963,0.962,0.959,0.957,0.956,0.956,0.954,0.954,0.953,0.953,0.951,0.951,0.95,0.95,0.95,0.948,0.948,0.948,0.947,0.948,0.948,0.95,0.95,0.95,0.951,0.953,0.954,0.956,0.959,0.96,0.962,0.963,0.964,0.964,0.966,0.966,0.966,0.966,0.968,0.966,0.966,0.964,0.964,0.964,0.964,0.963,0.963,0.963,0.963,0.964,0.964,0.966,0.966,0.968,0.969,0.971,0.971,0.972,0.972,0.972,0.972,0.974,0.974,0.972,0.972,0.971,0.971,0.969,0.969,0.968,0.968,0.966,0.966,0.964,0.964,0.964,0.964,0.964,0.964,0.964,0.964,0.966,0.966,0.966,0.966,0.966,0.966,0.966,0.966,0.966,0.966,0.964,0.964,0.964,0.964,0.966,0.966,0.966,0.968,0.968,0.968,0.966,0.966,0.966,0.966,0.966,0.966,0.964,0.964,0.964,0.963,0.963,0.963,0.963,0.962,0.962,0.962,0.962,0.962,0.963,0.963,0.963,0.964,0.964,0.964,0.964,0.964,0.964,0.964,0.966,0.966,0.966,0.966,0.966,0.964,0.966,0.964,0.963,0.963,0.962,0,0,0,0,0,0,0,0,0,0,0,0,0,0,0,0,0,0,0,0,0,0,0,0,0,0,0,0,0,0,0,0,0,0,0,0,0,0,0,0,0,0.325,0.324,0,0.323,0.323,0.322,0.322,0.321,0.321,0.32,0.32,0.319,0.319,0.318,0.318,0.317,0.316,0.316,0.315,0.315,0.314,0.314,0.313,0.313,0.312,0.312,0.311,0.311,0.31,0.309,0.309,0.308,0.307,0.307,0.306,0.306,0.305,0.305,0.304,0.303,0.303,0.302,0.302,0.301,0.301,0.3,0.3,0.299,0.299,0.299,0.298,0.298,0.297,0.297,0.296,0.296,0.295,0.295,0.294,0.294,0.293,0.292,0.292,0.291,0.291,0.29,0.29,0.289,0.289,0.288,0.288,0.287,0.287,0.286,0.286,0.285,0.285,0.285,0.284,0.284,0.283,0.283,0.282,0.282,0.281,0.281,0.281,0.28,0.28,0.279,0.279,0.278,0.278,0.277,0.277,0.276,0.276,0.276,0.275,0.275,0.274,0.274,0.274,0.273,0.273,0.272,0.272,0.271,0.271,0.271,0.27,0.27,0.27,0.269,0.269,0.269,0.268,0.268,0.268,0.267,0.267,0.267,0.267,0.267,0.267,0.267
0.988,0.988,0.988,0.988,0.988,0.988,0.986,0.986,0.984,0.983,0.983,0.981,0.98,0.98,0.98,0.978,0.98,0.98,0.98,0.977,0.977,0.977,0.975,0.975,0.975,0.974,0.974,0.974,0.972,0.972,0.974,0.974,0.974,0.975,0.975,0.977,0.977,0.978,0.978,0.978,0.98,0.98,0.98,0.98,0.981,0.981,0.981,0.981,0.981,0.98,0.98,0.98,0.98,0.98,0.98,0.981,0.981,0.981,0.983,0.983,0.983,0.983,0.983,0.981,0.981,0.981,0.98,0.98,0.98,0.98,0.98,0.98,0.98,0.98,0.98,0.98,0.98,0.98,0.98,0.981,0.981,0.981,0.983,0.983,0.983,0.983,0.983,0.983,0.983,0.983,0.983,0.983,0.981,0.981,0.981,0.981,0.981,0.981,0.981,0.981,0.983,0.983,0.983,0.983,0.984,0.984,0.984,0.984,0.983,0.983,0.983,0.983,0.981,0.98,0.981,0.98,0.98,0.978,0.978,0.978,0.978,0.978,0.978,0.977,0.977,0.978,0.978,0.98,0.98,0.981,0.981,0.983,0.984,0.984,0.984,0.984,0.986,0.986,0.986,0.986,0.986,0.986,0.984,0.984,0.983,0.984,0.984,0.984,0.983,0.983,0.981,0.98,0.98,0.98,0.978,0.978,0.975,0.975,0.975,0.975,0.975,0.975,0.975,0.975,0.974,0.975,0.975,0.975,0.975,0.975,0.975,0.975,0.975,0.975,0.974,0.974,0.972,0.972,0.972,0.972,0.971,0.969,0.968,0.968,0.968,0.966,0.966,0.966,0.966,0.966,0.968,0.968,0.968,0.968,0.969,0.971,0.972,0.972,0.972,0.974,0.974,0.974,0.974,0.974,0.972,0.972,0.972,0.972,0.972,0.972,0.972,0.972,0.972,0.972,0.972,0.974,0.974,0.975,0.975,0.977,0.977,0.977,0.977,0.975,0.974,0.974,0.972,0.971,0.971,0.969,0.971,0.969,0.969,0.969,0.969,0.969,0.968,0.968,0.968,0.969,0.968,0.966,0.966,0.966,0.964,0.964,0.963,0.962,0.962,0.96,0.96,0.96,0.96,0.959,0.959,0.959,0.957,0.957,0.957,0.956,0.956,0.956,0.954,0.953,0.951,0.95,0.95,0.95,0.948,0.948,0.948,0.947,0.947,0.947,0.945,0.944,0.942,0.942,0.942,0.942,0.942,0.942,0.944,0.944,0.945,0.947,0.947,0.948,0.951,0.953,0.954,0.956,0.959,0.959,0.96,0.96,0.962,0.962,0.962,0.962,0.963,0.962,0.962,0.96,0.96,0.96,0.96,0.959,0.959,0.959,0.959,0.959,0.96,0.96,0.962,0.962,0.963,0.964,0.964,0.966,0.966,0.966,0.968,0.968,0.966,0.966,0.966,0.964,0.964,0.964,0.963,0.963,0.962,0.962,0.96,0.96,0.96,0.96,0.96,0.96,0.959,0.959,0.959,0.962,0.962,0.962,0.962,0.962,0.962,0.962,0.962,0.962,0.962,0.96,0.96,0.96,0.96,0.96,0.96,0.96,0.962,0.96,0.96,0.96,0.96,0.96,0.96,0.96,0.96,0.96,0.96,0.959,0.959,0.959,0.959,0.957,0.957,0.957,0.957,0.957,0.957,0.957,0.957,0.957,0.959,0.96,0.96,0.96,0.96,0.96,0.96,0.96,0.96,0.96,0.96,0.96,0.96,0.96,0.959,0.957,0.954,0.954,0,0,0,0,0,0,0,0,0,0,0,0,0,0,0,0,0,0,0,0,0,0,0,0,0,0,0,0,0,0,0,0,0,0,0,0,0,0,0,0,0,0.324,0.324,0.323,0.323,0.323,0.322,0.321,0.321,0.321,0.32,0.32,0.319,0.319,0.318,0.318,0.317,0.316,0.316,0.315,0.315,0.314,0.314,0.313,0.313,0.312,0.312,0.311,0.311,0.31,0.309,0.309,0.308,0.307,0.307,0.306,0.306,0.305,0.304,0.304,0.303,0.303,0.302,0.302,0.301,0.301,0.3,0.3,0.299,0.299,0.298,0.298,0.298,0.297,0.297,0.296,0.296,0.295,0.295,0.294,0.294,0.293,0.293,0.292,0.292,0.291,0.291,0.29,0.289,0.289,0.288,0.288,0.287,0.287,0.286,0.286,0.285,0.285,0.285,0.284,0.284,0.283,0.283,0.282,0.282,0.281,0.281,0.28,0.28,0.28,0.279,0.279,0.278,0.278,0.277,0.277,0.277,0.276,0.276,0.275,0.275,0.274,0.274,0.274,0.273,0.273,0.272,0.272,0.271,0.271,0.271,0.27,0.27,0.27,0.269,0.269,0.269,0.268,0.268,0.268,0.267,0.267,0.267,0.267,0.267,0.267,0.267
0.983,0.983,0.981,0.981,0.981,0.981,0.98,0.98,0.978,0.975,0.975,0.974,0.974,0.972,0.972,0.972,0.974,0.972,0.974,0.971,0.971,0.971,0.971,0.969,0.969,0.969,0.969,0.969,0.969,0.969,0.971,0.971,0.971,0.972,0.972,0.974,0.972,0.974,0.974,0.974,0.974,0.975,0.975,0.975,0.975,0.975,0.975,0.975,0.975,0.974,0.974,0.972,0.974,0.972,0.974,0.975,0.975,0.975,0.975,0.977,0.977,0.977,0.975,0.975,0.975,0.975,0.975,0.975,0.974,0.975,0.975,0.974,0.974,0.974,0.974,0.974,0.972,0.972,0.974,0.974,0.975,0.975,0.975,0.977,0.977,0.977,0.977,0.977,0.977,0.977,0.977,0.977,0.975,0.975,0.975,0.975,0.975,0.975,0.975,0.975,0.977,0.975,0.977,0.977,0.977,0.978,0.977,0.977,0.977,0.977,0.977,0.977,0.975,0.974,0.975,0.974,0.974,0.972,0.972,0.972,0.972,0.971,0.971,0.971,0.971,0.972,0.972,0.972,0.974,0.974,0.975,0.975,0.975,0.975,0.977,0.978,0.978,0.978,0.978,0.98,0.98,0.98,0.978,0.978,0.978,0.978,0.98,0.978,0.978,0.977,0.977,0.977,0.977,0.975,0.974,0.972,0.972,0.972,0.972,0.971,0.971,0.971,0.969,0.969,0.969,0.969,0.969,0.969,0.968,0.968,0.968,0.969,0.969,0.968,0.968,0.966,0.966,0.966,0.964,0.964,0.964,0.963,0.963,0.963,0.963,0.962,0.962,0.962,0.962,0.962,0.962,0.963,0.963,0.963,0.964,0.966,0.966,0.966,0.968,0.968,0.969,0.969,0.968,0.968,0.968,0.968,0.968,0.966,0.966,0.966,0.966,0.966,0.966,0.966,0.966,0.968,0.969,0.969,0.969,0.971,0.971,0.971,0.971,0.969,0.968,0.968,0.966,0.964,0.964,0.963,0.963,0.963,0.963,0.963,0.962,0.962,0.96,0.96,0.96,0.96,0.959,0.957,0.957,0.957,0.957,0.956,0.954,0.953,0.953,0.951,0.951,0.95,0.95,0.95,0.95,0.948,0.948,0.947,0.947,0.947,0.947,0.947,0.945,0.945,0.944,0.944,0.944,0.944,0.944,0.942,0.942,0.942,0.942,0.941,0.94,0.938,0.938,0.937,0.937,0.937,0.937,0.938,0.94,0.941,0.941,0.942,0.944,0.945,0.948,0.95,0.95,0.951,0.954,0.954,0.956,0.956,0.957,0.956,0.957,0.957,0.957,0.957,0.957,0.956,0.956,0.956,0.956,0.954,0.954,0.954,0.954,0.954,0.954,0.956,0.956,0.957,0.957,0.959,0.96,0.96,0.96,0.96,0.96,0.96,0.96,0.96,0.96,0.959,0.959,0.959,0.957,0.957,0.956,0.956,0.954,0.954,0.954,0.954,0.954,0.954,0.954,0.954,0.954,0.956,0.956,0.956,0.956,0.956,0.956,0.956,0.956,0.956,0.956,0.956,0.956,0.956,0.956,0.956,0.956,0.956,0.956,0.956,0.956,0.956,0.954,0.954,0.954,0.954,0.956,0.954,0.954,0.954,0.954,0.954,0.953,0.953,0.953,0.953,0.951,0.951,0.951,0.951,0.951,0.953,0.954,0.954,0.954,0.954,0.954,0.954,0.956,0.956,0.956,0.954,0.954,0.954,0.954,0.954,0.953,0.951,0.95,0.947,0.947,0,0,0,0,0,0,0,0,0,0,0,0,0,0,0,0,0,0,0,0,0,0,0,0,0,0,0,0,0,0,0,0,0,0,0,0,0,0,0,0,0.324,0.324,0.323,0.323,0.323,0.322,0.322,0.321,0.321,0.32,0.32,0.319,0.319,0.318,0.318,0.317,0.316,0.316,0.315,0.315,0.314,0.314,0.313,0.313,0.312,0.312,0.311,0.31,0.31,0.309,0.309,0.308,0.307,0.307,0.306,0.305,0.305,0.304,0.304,0.303,0.302,0.302,0.301,0.301,0.3,0.3,0.3,0.299,0.299,0.298,0.298,0.298,0.297,0.297,0.296,0.296,0.295,0.295,0.294,0.294,0.293,0.293,0.292,0.292,0.291,0.291,0.29,0.289,0.289,0.288,0.288,0.287,0.287,0.286,0.286,0.285,0.285,0.285,0.284,0.284,0.284,0.283,0.282,0.282,0.281,0.281,0.28,0.28,0.28,0.279,0.279,0.278,0.278,0.278,0.277,0.277,0.276,0.276,0.276,0.275,0.275,0.274,0.274,0.273,0.273,0.272,0.272,0.271,0.271,0.271,0.27,0.27,0.27,0.269,0.269,0.269,0.268,0.268,0.268,0.267,0.267,0.267,0.267,0.267,0.267,0.267
0.977,0.977,0.977,0.975,0.975,0.974,0.974,0.972,0.971,0.969,0.968,0.968,0.966,0.966,0.966,0.966,0.966,0.966,0.966,0.964,0.964,0.964,0.964,0.964,0.964,0.964,0.964,0.964,0.964,0.966,0.968,0.968,0.968,0.968,0.969,0.969,0.969,0.969,0.969,0.969,0.969,0.969,0.971,0.971,0.971,0.971,0.971,0.971,0.971,0.969,0.968,0.968,0.969,0.968,0.969,0.969,0.969,0.969,0.971,0.971,0.971,0.971,0.971,0.969,0.969,0.969,0.969,0.969,0.969,0.969,0.969,0.969,0.968,0.968,0.968,0.968,0.968,0.968,0.968,0.968,0.969,0.969,0.971,0.971,0.971,0.971,0.971,0.971,0.971,0.971,0.971,0.971,0.969,0.971,0.971,0.971,0.969,0.969,0.969,0.971,0.971,0.971,0.971,0.972,0.972,0.972,0.972,0.971,0.971,0.971,0.971,0.971,0.969,0.969,0.969,0.968,0.968,0.966,0.966,0.966,0.964,0.964,0.964,0.964,0.964,0.966,0.966,0.966,0.968,0.968,0.968,0.968,0.968,0.969,0.969,0.969,0.971,0.971,0.971,0.972,0.972,0.972,0.972,0.972,0.972,0.972,0.974,0.972,0.972,0.972,0.971,0.971,0.971,0.971,0.969,0.968,0.968,0.968,0.968,0.968,0.966,0.964,0.964,0.963,0.964,0.964,0.964,0.963,0.962,0.962,0.962,0.963,0.963,0.962,0.962,0.962,0.96,0.96,0.96,0.96,0.96,0.959,0.959,0.959,0.959,0.957,0.956,0.957,0.957,0.957,0.957,0.957,0.959,0.959,0.96,0.96,0.96,0.962,0.962,0.963,0.963,0.963,0.963,0.963,0.962,0.962,0.962,0.962,0.962,0.962,0.96,0.96,0.96,0.96,0.962,0.962,0.963,0.963,0.964,0.964,0.964,0.964,0.964,0.964,0.963,0.962,0.96,0.959,0.959,0.957,0.957,0.956,0.956,0.954,0.953,0.953,0.951,0.951,0.951,0.951,0.95,0.95,0.948,0.948,0.947,0.947,0.945,0.944,0.942,0.941,0.941,0.941,0.941,0.94,0.94,0.938,0.938,0.937,0.938,0.937,0.937,0.938,0.938,0.937,0.938,0.938,0.938,0.94,0.938,0.938,0.937,0.937,0.937,0.935,0.935,0.934,0.934,0.934,0.934,0.934,0.935,0.937,0.938,0.94,0.941,0.941,0.942,0.944,0.945,0.947,0.947,0.947,0.95,0.95,0.95,0.95,0.951,0.951,0.951,0.953,0.953,0.953,0.953,0.953,0.953,0.951,0.951,0.951,0.951,0.95,0.95,0.95,0.95,0.951,0.951,0.951,0.953,0.953,0.954,0.954,0.954,0.954,0.954,0.954,0.954,0.954,0.953,0.953,0.953,0.953,0.953,0.951,0.951,0.95,0.95,0.948,0.948,0.95,0.948,0.948,0.948,0.95,0.95,0.95,0.951,0.951,0.951,0.951,0.951,0.951,0.951,0.951,0.951,0.951,0.95,0.95,0.95,0.95,0.95,0.95,0.95,0.948,0.948,0.948,0.948,0.948,0.948,0.948,0.95,0.95,0.95,0.95,0.95,0.948,0.948,0.948,0.948,0.948,0.947,0.947,0.947,0.947,0.947,0.947,0.948,0.948,0.948,0.948,0.948,0.95,0.95,0.95,0.95,0.948,0.948,0.948,0.948,0.948,0.947,0.945,0.942,0.941,0.94,0,0,0,0,0,0,0,0,0,0,0,0,0,0,0,0,0,0,0,0,0,0,0,0,0,0,0,0,0,0,0,0,0,0,0,0,0,0,0,0,0,0.324,0.324,0.323,0.323,0.322,0.322,0.321,0.321,0.32,0.32,0.319,0.319,0.318,0.318,0.317,0.316,0.316,0.315,0.315,0.314,0.314,0.313,0.313,0.312,0.312,0.311,0.31,0.31,0.309,0.308,0.308,0.307,0.307,0.306,0.305,0.305,0.304,0.303,0.303,0.302,0.302,0.301,0.301,0.3,0.3,0.299,0.299,0.299,0.298,0.298,0.297,0.297,0.297,0.296,0.296,0.295,0.295,0.294,0.294,0.293,0.293,0.292,0.292,0.291,0.291,0.29,0.289,0.289,0.289,0.288,0.287,0.287,0.287,0.286,0.285,0.285,0.285,0.284,0.284,0.284,0.283,0.282,0.282,0.281,0.281,0.281,0.28,0.28,0.279,0.279,0.278,0.278,0.278,0.277,0.277,0.277,0.276,0.276,0.275,0.275,0.274,0.274,0.273,0.273,0.272,0.272,0.271,0.271,0.271,0.27,0.27,0.27,0.269,0.269,0.269,0.268,0.268,0.268,0.267,0.267,0.267,0.267,0.267,0.267,0.266
0.971,0.971,0.971,0.969,0.969,0.968,0.966,0.964,0.963,0.962,0.96,0.96,0.959,0.959,0.959,0.959,0.959,0.96,0.959,0.959,0.959,0.959,0.959,0.96,0.96,0.96,0.96,0.962,0.962,0.963,0.963,0.964,0.963,0.964,0.964,0.964,0.964,0.964,0.964,0.964,0.964,0.966,0.966,0.964,0.964,0.966,0.966,0.964,0.964,0.964,0.963,0.963,0.963,0.963,0.964,0.964,0.964,0.964,0.964,0.966,0.966,0.964,0.964,0.963,0.963,0.963,0.963,0.963,0.963,0.964,0.963,0.963,0.963,0.963,0.963,0.962,0.962,0.962,0.962,0.963,0.963,0.964,0.964,0.964,0.966,0.966,0.966,0.966,0.964,0.964,0.964,0.964,0.963,0.963,0.964,0.964,0.964,0.964,0.964,0.964,0.966,0.966,0.966,0.966,0.966,0.966,0.966,0.966,0.964,0.964,0.964,0.964,0.963,0.963,0.963,0.963,0.962,0.962,0.96,0.96,0.96,0.96,0.959,0.959,0.959,0.959,0.959,0.96,0.96,0.96,0.96,0.96,0.962,0.96,0.962,0.962,0.963,0.963,0.963,0.964,0.964,0.964,0.964,0.964,0.966,0.966,0.966,0.968,0.966,0.966,0.966,0.966,0.966,0.966,0.964,0.963,0.963,0.963,0.963,0.963,0.962,0.962,0.96,0.96,0.959,0.959,0.959,0.959,0.957,0.957,0.957,0.957,0.957,0.957,0.956,0.956,0.956,0.956,0.956,0.956,0.956,0.954,0.954,0.954,0.954,0.954,0.953,0.953,0.953,0.953,0.953,0.953,0.953,0.954,0.954,0.956,0.956,0.956,0.957,0.957,0.959,0.959,0.957,0.957,0.957,0.956,0.956,0.956,0.956,0.956,0.954,0.954,0.954,0.954,0.956,0.957,0.957,0.957,0.957,0.959,0.959,0.959,0.959,0.957,0.956,0.954,0.953,0.953,0.953,0.951,0.95,0.948,0.947,0.947,0.945,0.944,0.942,0.942,0.942,0.942,0.942,0.941,0.94,0.94,0.94,0.94,0.938,0.935,0.934,0.933,0.933,0.933,0.931,0.93,0.93,0.93,0.928,0.928,0.93,0.93,0.931,0.93,0.931,0.931,0.931,0.933,0.934,0.934,0.934,0.934,0.933,0.934,0.933,0.933,0.931,0.931,0.931,0.931,0.931,0.933,0.934,0.935,0.937,0.938,0.94,0.94,0.941,0.941,0.942,0.942,0.942,0.944,0.944,0.944,0.945,0.945,0.945,0.945,0.947,0.947,0.947,0.947,0.947,0.947,0.947,0.945,0.945,0.945,0.945,0.944,0.945,0.945,0.945,0.945,0.947,0.947,0.947,0.948,0.948,0.948,0.948,0.948,0.948,0.948,0.948,0.947,0.947,0.945,0.945,0.945,0.945,0.945,0.944,0.944,0.944,0.942,0.944,0.944,0.944,0.944,0.944,0.944,0.945,0.944,0.945,0.945,0.945,0.945,0.945,0.945,0.945,0.945,0.947,0.945,0.945,0.945,0.945,0.945,0.944,0.944,0.944,0.942,0.942,0.942,0.942,0.942,0.942,0.942,0.944,0.945,0.945,0.945,0.944,0.944,0.944,0.944,0.944,0.944,0.941,0.941,0.941,0.941,0.941,0.942,0.942,0.942,0.944,0.944,0.944,0.944,0.944,0.944,0.942,0.942,0.942,0.942,0.942,0.941,0.94,0.938,0.937,0.935,0.934,0.934,0.931,0,0,0,0,0,0,0,0,0,0,0,0,0,0,0,0,0,0,0,0,0,0,0,0,0,0,0,0,0,0,0,0,0,0,0,0,0,0,0,0.324,0.324,0.323,0.323,0.322,0.322,0.321,0.321,0.32,0.32,0.319,0.319,0.318,0.318,0.317,0.316,0.316,0.315,0.315,0.314,0.314,0.313,0.313,0.312,0.312,0.311,0.31,0.31,0.309,0.308,0.308,0.307,0.306,0.306,0.305,0.304,0.304,0.303,0.303,0.302,0.302,0.301,0.3,0.3,0.3,0.3,0.299,0.299,0.298,0.298,0.298,0.297,0.297,0.296,0.296,0.295,0.295,0.294,0.294,0.293,0.293,0.292,0.292,0.291,0.291,0.29,0.29,0.289,0.289,0.288,0.288,0.287,0.286,0.286,0.286,0.285,0.285,0.285,0.284,0.284,0.283,0.282,0.282,0.281,0.281,0.28,0.28,0.28,0.279,0.279,0.279,0.278,0.278,0.277,0.277,0.277,0.276,0.276,0.275,0.275,0.274,0.274,0.273,0.273,0.272,0.272,0.271,0.271,0.271,0.27,0.27,0.27,0.269,0.269,0.269,0.268,0.268,0.268,0.267,0.267,0.267,0.267,0.267,0.267,0
0.964,0.964,0.963,0.962,0.962,0.96,0.959,0.957,0.956,0.956,0.954,0.953,0.953,0.953,0.953,0.953,0.951,0.953,0.953,0.954,0.954,0.954,0.954,0.956,0.956,0.956,0.956,0.957,0.957,0.957,0.959,0.959,0.96,0.96,0.96,0.96,0.96,0.96,0.96,0.962,0.962,0.962,0.962,0.96,0.96,0.96,0.96,0.96,0.96,0.959,0.959,0.959,0.959,0.959,0.96,0.96,0.959,0.96,0.96,0.96,0.96,0.96,0.96,0.959,0.959,0.957,0.957,0.959,0.959,0.959,0.959,0.959,0.957,0.957,0.957,0.957,0.956,0.956,0.957,0.957,0.957,0.959,0.959,0.96,0.96,0.96,0.96,0.96,0.959,0.959,0.959,0.957,0.957,0.959,0.959,0.959,0.959,0.959,0.96,0.96,0.962,0.962,0.962,0.962,0.96,0.96,0.96,0.96,0.959,0.959,0.959,0.959,0.957,0.957,0.957,0.957,0.956,0.956,0.956,0.954,0.954,0.954,0.954,0.953,0.953,0.953,0.953,0.953,0.953,0.953,0.953,0.953,0.953,0.954,0.954,0.954,0.954,0.956,0.956,0.957,0.957,0.959,0.959,0.959,0.959,0.96,0.96,0.962,0.962,0.96,0.96,0.96,0.962,0.962,0.96,0.959,0.959,0.959,0.959,0.959,0.957,0.957,0.956,0.956,0.954,0.954,0.954,0.953,0.953,0.953,0.953,0.951,0.951,0.951,0.951,0.951,0.95,0.95,0.95,0.951,0.951,0.95,0.95,0.95,0.95,0.95,0.95,0.95,0.95,0.948,0.948,0.948,0.948,0.95,0.95,0.951,0.951,0.951,0.953,0.953,0.953,0.953,0.953,0.953,0.951,0.951,0.951,0.951,0.951,0.951,0.95,0.95,0.95,0.95,0.95,0.951,0.951,0.951,0.951,0.951,0.953,0.951,0.951,0.95,0.948,0.948,0.945,0.944,0.944,0.942,0.941,0.941,0.94,0.938,0.937,0.937,0.935,0.935,0.934,0.934,0.934,0.933,0.933,0.931,0.931,0.931,0.93,0.927,0.926,0.924,0.923,0.923,0.923,0.923,0.921,0.921,0.921,0.921,0.923,0.924,0.924,0.926,0.926,0.926,0.927,0.928,0.93,0.93,0.93,0.93,0.93,0.93,0.93,0.93,0.93,0.93,0.93,0.93,0.931,0.931,0.933,0.934,0.935,0.937,0.937,0.938,0.938,0.94,0.938,0.94,0.938,0.94,0.94,0.938,0.94,0.94,0.941,0.941,0.941,0.941,0.941,0.941,0.941,0.941,0.941,0.94,0.94,0.94,0.94,0.94,0.94,0.94,0.94,0.941,0.941,0.941,0.941,0.942,0.944,0.944,0.944,0.942,0.942,0.942,0.942,0.941,0.941,0.94,0.938,0.94,0.94,0.938,0.938,0.938,0.938,0.937,0.938,0.938,0.938,0.938,0.938,0.94,0.94,0.94,0.94,0.94,0.941,0.941,0.941,0.941,0.942,0.942,0.942,0.942,0.942,0.941,0.941,0.941,0.94,0.94,0.938,0.938,0.938,0.938,0.938,0.938,0.938,0.938,0.94,0.941,0.941,0.941,0.941,0.94,0.94,0.94,0.94,0.938,0.937,0.937,0.937,0.937,0.937,0.937,0.937,0.937,0.938,0.938,0.938,0.938,0.938,0.938,0.938,0.937,0.937,0.937,0.937,0.935,0.934,0.933,0.931,0.931,0.93,0.928,0.927,0,0,0,0,0,0,0,0,0,0,0,0,0,0,0,0,0,0,0,0,0,0,0,0,0,0,0,0,0,0,0,0,0,0,0,0,0,0,0,0.324,0.324,0.323,0.323,0.323,0.322,0.321,0.321,0.32,0.32,0.319,0.319,0.318,0.317,0.317,0.316,0.316,0.315,0.315,0.314,0.314,0.313,0.313,0.312,0.312,0.311,0.31,0.309,0.309,0.308,0.307,0.307,0.306,0.305,0.305,0.304,0.304,0.303,0.303,0.302,0.302,0.301,0.301,0.3,0.3,0.3,0.299,0.299,0.298,0.298,0.298,0.297,0.297,0.296,0.296,0.295,0.295,0.294,0.294,0.293,0.292,0.292,0.292,0.291,0.291,0.29,0.29,0.289,0.289,0.288,0.288,0.287,0.287,0.286,0.286,0.285,0.285,0.284,0.284,0.284,0.283,0.282,0.282,0.281,0.281,0.28,0.28,0.28,0.279,0.279,0.279,0.278,0.278,0.277,0.277,0.277,0.276,0.276,0.275,0.275,0.274,0.274,0.273,0.273,0.272,0.272,0.271,0.271,0.271,0.27,0.27,0.27,0.269,0.269,0.269,0.268,0.268,0.267,0.267,0.267,0.267,0.267,0.267,0.267,0.266
0.957,0.957,0.957,0.956,0.954,0.954,0.953,0.951,0.95,0.948,0.948,0.947,0.947,0.947,0.947,0.947,0.947,0.948,0.95,0.95,0.95,0.951,0.951,0.951,0.953,0.951,0.953,0.953,0.953,0.953,0.953,0.954,0.954,0.956,0.956,0.956,0.956,0.956,0.956,0.956,0.956,0.957,0.956,0.956,0.956,0.956,0.956,0.954,0.954,0.954,0.953,0.953,0.953,0.954,0.954,0.954,0.954,0.954,0.954,0.954,0.954,0.954,0.954,0.953,0.953,0.951,0.951,0.953,0.953,0.953,0.953,0.953,0.953,0.953,0.953,0.951,0.951,0.951,0.951,0.953,0.953,0.953,0.954,0.954,0.954,0.954,0.954,0.953,0.953,0.951,0.951,0.951,0.951,0.953,0.953,0.953,0.953,0.954,0.954,0.954,0.954,0.956,0.956,0.956,0.954,0.954,0.954,0.953,0.953,0.953,0.954,0.953,0.953,0.951,0.951,0.951,0.951,0.95,0.95,0.95,0.948,0.948,0.948,0.947,0.947,0.947,0.947,0.947,0.947,0.945,0.947,0.945,0.945,0.947,0.947,0.947,0.948,0.947,0.948,0.95,0.95,0.951,0.951,0.953,0.953,0.954,0.954,0.954,0.954,0.954,0.956,0.956,0.956,0.956,0.956,0.954,0.954,0.954,0.954,0.954,0.953,0.953,0.951,0.951,0.95,0.95,0.948,0.948,0.948,0.948,0.947,0.947,0.947,0.947,0.947,0.947,0.947,0.945,0.947,0.947,0.947,0.947,0.947,0.947,0.947,0.945,0.945,0.945,0.945,0.945,0.945,0.945,0.945,0.945,0.945,0.947,0.947,0.947,0.948,0.948,0.948,0.948,0.947,0.948,0.947,0.947,0.945,0.945,0.945,0.944,0.944,0.942,0.942,0.942,0.942,0.944,0.942,0.944,0.942,0.944,0.944,0.942,0.942,0.941,0.941,0.94,0.938,0.937,0.937,0.937,0.935,0.934,0.933,0.931,0.93,0.928,0.928,0.928,0.928,0.927,0.926,0.926,0.926,0.924,0.924,0.923,0.921,0.92,0.919,0.919,0.917,0.917,0.917,0.917,0.917,0.917,0.917,0.919,0.919,0.92,0.92,0.92,0.92,0.921,0.923,0.924,0.924,0.926,0.926,0.926,0.926,0.927,0.927,0.927,0.927,0.927,0.927,0.928,0.93,0.931,0.931,0.933,0.934,0.934,0.934,0.934,0.935,0.935,0.934,0.935,0.934,0.934,0.933,0.933,0.934,0.934,0.935,0.935,0.935,0.935,0.935,0.935,0.935,0.935,0.935,0.934,0.934,0.934,0.934,0.934,0.934,0.935,0.935,0.935,0.935,0.937,0.937,0.937,0.938,0.938,0.938,0.938,0.937,0.937,0.937,0.937,0.935,0.934,0.934,0.934,0.934,0.933,0.933,0.933,0.933,0.933,0.933,0.934,0.934,0.934,0.934,0.934,0.934,0.935,0.935,0.935,0.935,0.935,0.937,0.937,0.937,0.937,0.937,0.937,0.937,0.937,0.937,0.935,0.935,0.934,0.933,0.933,0.933,0.934,0.934,0.934,0.934,0.934,0.935,0.935,0.937,0.937,0.937,0.935,0.935,0.934,0.934,0.934,0.934,0.933,0.933,0.933,0.933,0.933,0.933,0.933,0.933,0.933,0.933,0.933,0.933,0.933,0.931,0.931,0.931,0.931,0.931,0.93,0.928,0.927,0.926,0.926,0.926,0.924,0.923,0.921,0,0,0,0,0,0,0,0,0,0,0,0,0,0,0,0,0,0,0,0,0,0,0,0,0,0,0,0,0,0,0,0,0,0,0,0,0,0,0,0.324,0.323,0.323,0.323,0.322,0.321,0.321,0.32,0.32,0.319,0.319,0.318,0.317,0.317,0.316,0.316,0.315,0.315,0.314,0.314,0.313,0.313,0.312,0.312,0.311,0.31,0.309,0.309,0.308,0.307,0.307,0.306,0.305,0.305,0.304,0.304,0.303,0.303,0.302,0.302,0.301,0.301,0.3,0.3,0.3,0.299,0.299,0.298,0.298,0.298,0.297,0.297,0.296,0.296,0.295,0.295,0.294,0.294,0.293,0.293,0.292,0.292,0.291,0.291,0.29,0.29,0.289,0.289,0.288,0.288,0.287,0.287,0.286,0.286,0.285,0.285,0.284,0.284,0.284,0.283,0.282,0.282,0.282,0.281,0.281,0.28,0.28,0.279,0.279,0.279,0.278,0.278,0.277,0.277,0.277,0.276,0.276,0.275,0.275,0.274,0.274,0.273,0.273,0.272,0.272,0.271,0.271,0.271,0.27,0.27,0.27,0.269,0.269,0.269,0.268,0.268,0.267,0.267,0.267,0.267,0.267,0.267,0.266,0.266
0.951,0.951,0.95,0.95,0.948,0.948,0.947,0.947,0.945,0.944,0.942,0.941,0.942,0.942,0.942,0.942,0.942,0.944,0.945,0.945,0.945,0.945,0.947,0.947,0.947,0.948,0.948,0.948,0.948,0.948,0.948,0.95,0.95,0.951,0.951,0.951,0.951,0.951,0.951,0.951,0.951,0.951,0.95,0.95,0.95,0.95,0.95,0.95,0.95,0.95,0.95,0.948,0.948,0.948,0.948,0.948,0.948,0.948,0.948,0.948,0.948,0.948,0.947,0.947,0.947,0.947,0.947,0.947,0.947,0.948,0.948,0.947,0.947,0.947,0.947,0.947,0.947,0.947,0.945,0.947,0.947,0.947,0.948,0.947,0.948,0.948,0.948,0.948,0.947,0.945,0.945,0.945,0.945,0.947,0.947,0.947,0.947,0.947,0.948,0.948,0.948,0.95,0.95,0.95,0.948,0.948,0.948,0.947,0.947,0.947,0.947,0.947,0.947,0.947,0.945,0.945,0.945,0.945,0.944,0.944,0.942,0.941,0.942,0.941,0.941,0.94,0.94,0.94,0.94,0.94,0.94,0.938,0.94,0.938,0.94,0.94,0.94,0.94,0.941,0.941,0.944,0.944,0.945,0.945,0.945,0.947,0.948,0.948,0.948,0.948,0.948,0.948,0.95,0.95,0.95,0.95,0.948,0.948,0.948,0.948,0.948,0.947,0.945,0.945,0.944,0.944,0.944,0.942,0.942,0.942,0.942,0.942,0.942,0.942,0.942,0.942,0.942,0.942,0.942,0.942,0.942,0.942,0.942,0.942,0.942,0.942,0.942,0.942,0.941,0.941,0.941,0.941,0.941,0.941,0.941,0.942,0.942,0.944,0.944,0.944,0.944,0.944,0.942,0.942,0.942,0.941,0.941,0.94,0.94,0.938,0.937,0.935,0.935,0.935,0.935,0.935,0.935,0.935,0.935,0.935,0.935,0.934,0.934,0.933,0.933,0.931,0.931,0.93,0.93,0.928,0.928,0.927,0.926,0.924,0.923,0.921,0.921,0.921,0.921,0.92,0.92,0.919,0.919,0.919,0.917,0.917,0.916,0.915,0.915,0.913,0.915,0.915,0.915,0.913,0.913,0.913,0.913,0.915,0.915,0.916,0.916,0.916,0.916,0.917,0.919,0.919,0.92,0.921,0.921,0.921,0.923,0.923,0.924,0.924,0.924,0.926,0.926,0.926,0.927,0.928,0.928,0.93,0.93,0.93,0.93,0.931,0.931,0.93,0.93,0.93,0.93,0.928,0.927,0.928,0.928,0.928,0.93,0.93,0.93,0.93,0.93,0.93,0.93,0.93,0.93,0.928,0.928,0.928,0.928,0.928,0.928,0.93,0.93,0.93,0.93,0.931,0.931,0.931,0.933,0.933,0.933,0.933,0.933,0.931,0.931,0.931,0.93,0.928,0.928,0.928,0.927,0.927,0.927,0.927,0.927,0.927,0.928,0.93,0.928,0.93,0.93,0.93,0.93,0.93,0.931,0.93,0.93,0.931,0.931,0.931,0.931,0.931,0.931,0.931,0.931,0.931,0.931,0.931,0.93,0.93,0.928,0.928,0.928,0.928,0.928,0.928,0.928,0.928,0.93,0.93,0.93,0.93,0.93,0.93,0.93,0.93,0.93,0.93,0.927,0.927,0.927,0.927,0.927,0.927,0.927,0.927,0.927,0.927,0.927,0.927,0.927,0.927,0.926,0.926,0.924,0.926,0.924,0.923,0.923,0.921,0.92,0.92,0.92,0.92,0.919,0,0,0,0,0,0,0,0,0,0,0,0,0,0,0,0,0,0,0,0,0,0,0,0,0,0,0,0,0,0,0,0,0,0,0,0,0,0,0,0.324,0.324,0.324,0.323,0.323,0.322,0.322,0.321,0.32,0.32,0.319,0.319,0.318,0.317,0.317,0.316,0.316,0.315,0.315,0.314,0.314,0.313,0.313,0.312,0.312,0.311,0.31,0.309,0.309,0.308,0.307,0.307,0.306,0.305,0.305,0.304,0.304,0.303,0.303,0.302,0.302,0.301,0.301,0.301,0.3,0.3,0.299,0.299,0.298,0.298,0.298,0.297,0.297,0.296,0.296,0.295,0.295,0.294,0.294,0.293,0.293,0.292,0.292,0.291,0.291,0.29,0.29,0.289,0.289,0.288,0.288,0.287,0.287,0.286,0.286,0.285,0.285,0.284,0.284,0.284,0.283,0.283,0.282,0.282,0.281,0.281,0.28,0.28,0.28,0.279,0.279,0.278,0.278,0.277,0.277,0.277,0.276,0.276,0.275,0.275,0.274,0.274,0.273,0.273,0.272,0.272,0.271,0.271,0.271,0.27,0.27,0.27,0.269,0.269,0.269,0.268,0.268,0.267,0.267,0.267,0.267,0.267,0.267,0.266,0
0.944,0.945,0.945,0.945,0.944,0.944,0.942,0.941,0.94,0.94,0.937,0.937,0.938,0.938,0.938,0.94,0.94,0.94,0.941,0.941,0.942,0.942,0.942,0.942,0.942,0.942,0.944,0.944,0.944,0.944,0.944,0.944,0.945,0.945,0.945,0.945,0.945,0.947,0.947,0.947,0.947,0.947,0.945,0.945,0.945,0.944,0.944,0.944,0.944,0.944,0.944,0.944,0.944,0.944,0.944,0.944,0.942,0.942,0.942,0.942,0.942,0.942,0.942,0.941,0.941,0.941,0.941,0.941,0.941,0.942,0.942,0.942,0.942,0.942,0.942,0.942,0.942,0.941,0.941,0.942,0.941,0.942,0.941,0.941,0.942,0.942,0.942,0.941,0.94,0.94,0.94,0.94,0.94,0.94,0.94,0.94,0.941,0.941,0.942,0.942,0.942,0.944,0.944,0.944,0.942,0.942,0.942,0.941,0.941,0.941,0.941,0.941,0.941,0.941,0.94,0.94,0.94,0.94,0.938,0.938,0.937,0.937,0.937,0.935,0.935,0.934,0.933,0.934,0.933,0.933,0.933,0.933,0.933,0.933,0.933,0.934,0.934,0.934,0.934,0.935,0.937,0.937,0.938,0.938,0.94,0.94,0.941,0.941,0.941,0.941,0.941,0.942,0.944,0.944,0.944,0.942,0.942,0.942,0.944,0.942,0.942,0.941,0.941,0.94,0.938,0.94,0.938,0.938,0.938,0.938,0.937,0.937,0.937,0.937,0.938,0.938,0.938,0.938,0.938,0.94,0.94,0.94,0.94,0.94,0.94,0.938,0.938,0.938,0.937,0.937,0.937,0.937,0.937,0.937,0.937,0.938,0.937,0.937,0.937,0.937,0.937,0.937,0.935,0.937,0.934,0.935,0.934,0.934,0.933,0.931,0.93,0.93,0.93,0.928,0.928,0.93,0.928,0.93,0.928,0.928,0.928,0.927,0.927,0.927,0.926,0.924,0.924,0.924,0.923,0.923,0.921,0.921,0.92,0.919,0.917,0.916,0.916,0.916,0.916,0.915,0.915,0.913,0.913,0.913,0.913,0.913,0.913,0.912,0.911,0.911,0.911,0.911,0.911,0.911,0.909,0.909,0.909,0.911,0.911,0.911,0.912,0.912,0.912,0.913,0.915,0.916,0.916,0.917,0.917,0.919,0.92,0.92,0.921,0.921,0.921,0.921,0.923,0.923,0.923,0.924,0.924,0.924,0.926,0.926,0.926,0.926,0.926,0.924,0.924,0.924,0.923,0.923,0.921,0.921,0.921,0.921,0.924,0.924,0.923,0.923,0.924,0.924,0.924,0.924,0.924,0.923,0.923,0.923,0.923,0.923,0.923,0.923,0.924,0.924,0.926,0.926,0.926,0.926,0.927,0.927,0.927,0.927,0.927,0.926,0.926,0.926,0.924,0.923,0.923,0.921,0.921,0.921,0.921,0.923,0.923,0.923,0.923,0.924,0.924,0.926,0.926,0.926,0.926,0.926,0.926,0.926,0.926,0.927,0.927,0.926,0.927,0.927,0.927,0.927,0.926,0.926,0.926,0.926,0.924,0.924,0.923,0.923,0.923,0.924,0.923,0.923,0.924,0.924,0.924,0.924,0.924,0.924,0.924,0.924,0.924,0.924,0.924,0.924,0.924,0.921,0.921,0.921,0.921,0.921,0.921,0.921,0.921,0.921,0.921,0.921,0.92,0.92,0.919,0.919,0.92,0.919,0.919,0.917,0.916,0.916,0.916,0.916,0.916,0.916,0.915,0,0,0,0,0,0,0,0,0,0,0,0,0,0,0,0,0,0,0,0,0,0,0,0,0,0,0,0,0,0,0,0,0,0,0,0,0,0,0,0.325,0.324,0.324,0.323,0.323,0.323,0.322,0.321,0.32,0.32,0.319,0.318,0.318,0.317,0.317,0.316,0.316,0.315,0.315,0.314,0.314,0.313,0.313,0.312,0.311,0.311,0.31,0.309,0.309,0.308,0.307,0.307,0.306,0.305,0.305,0.304,0.304,0.303,0.303,0.302,0.302,0.301,0.301,0.301,0.3,0.3,0.299,0.299,0.299,0.298,0.298,0.297,0.297,0.296,0.296,0.295,0.295,0.294,0.294,0.293,0.293,0.292,0.292,0.291,0.291,0.29,0.29,0.289,0.289,0.288,0.288,0.287,0.287,0.286,0.286,0.285,0.285,0.284,0.284,0.283,0.283,0.283,0.282,0.282,0.281,0.281,0.281,0.28,0.28,0.279,0.279,0.278,0.278,0.277,0.277,0.277,0.276,0.276,0.275,0.275,0.274,0.274,0.273,0.273,0.272,0.272,0.271,0.271,0.271,0.27,0.27,0.27,0.269,0.269,0.268,0.268,0.268,0.267,0.267,0.267,0.267,0.267,0.266,0.266,0.266
0.94,0.94,0.94,0.94,0.94,0.938,0.938,0.937,0.937,0.935,0.934,0.934,0.935,0.935,0.935,0.937,0.935,0.937,0.937,0.938,0.938,0.938,0.937,0.938,0.938,0.938,0.938,0.938,0.938,0.938,0.94,0.94,0.941,0.941,0.941,0.941,0.941,0.941,0.941,0.941,0.941,0.941,0.941,0.941,0.94,0.94,0.94,0.94,0.94,0.94,0.938,0.938,0.938,0.938,0.938,0.938,0.938,0.938,0.937,0.937,0.937,0.937,0.935,0.935,0.935,0.935,0.935,0.935,0.937,0.937,0.937,0.937,0.938,0.937,0.938,0.937,0.937,0.937,0.937,0.937,0.937,0.937,0.935,0.935,0.935,0.935,0.935,0.935,0.934,0.933,0.933,0.933,0.933,0.934,0.934,0.934,0.935,0.935,0.937,0.937,0.937,0.938,0.938,0.938,0.937,0.937,0.937,0.935,0.935,0.935,0.935,0.935,0.935,0.934,0.934,0.934,0.934,0.934,0.933,0.933,0.931,0.931,0.931,0.93,0.93,0.928,0.928,0.928,0.927,0.927,0.927,0.927,0.927,0.927,0.927,0.927,0.928,0.927,0.928,0.928,0.93,0.931,0.931,0.931,0.933,0.933,0.934,0.933,0.934,0.934,0.935,0.935,0.937,0.937,0.937,0.938,0.937,0.937,0.937,0.937,0.937,0.935,0.934,0.934,0.934,0.934,0.934,0.933,0.933,0.933,0.933,0.933,0.933,0.934,0.934,0.935,0.934,0.934,0.935,0.935,0.935,0.935,0.935,0.935,0.935,0.934,0.934,0.934,0.933,0.933,0.933,0.931,0.933,0.933,0.933,0.933,0.933,0.933,0.933,0.931,0.931,0.93,0.93,0.93,0.928,0.928,0.927,0.927,0.926,0.926,0.924,0.924,0.923,0.923,0.923,0.924,0.923,0.924,0.923,0.923,0.923,0.921,0.921,0.92,0.92,0.919,0.919,0.917,0.917,0.917,0.916,0.916,0.915,0.913,0.913,0.912,0.912,0.912,0.911,0.911,0.911,0.911,0.911,0.911,0.911,0.911,0.911,0.909,0.909,0.908,0.908,0.908,0.908,0.908,0.907,0.907,0.905,0.907,0.907,0.907,0.907,0.908,0.908,0.909,0.911,0.912,0.913,0.915,0.916,0.916,0.916,0.917,0.917,0.919,0.919,0.919,0.919,0.919,0.92,0.92,0.92,0.92,0.921,0.921,0.921,0.92,0.92,0.919,0.919,0.917,0.917,0.917,0.917,0.917,0.917,0.917,0.919,0.919,0.919,0.917,0.917,0.917,0.917,0.917,0.917,0.919,0.919,0.92,0.92,0.919,0.919,0.919,0.919,0.919,0.92,0.92,0.92,0.92,0.921,0.921,0.921,0.921,0.92,0.92,0.92,0.92,0.919,0.919,0.917,0.917,0.917,0.917,0.917,0.917,0.919,0.919,0.919,0.92,0.92,0.92,0.92,0.92,0.921,0.921,0.921,0.921,0.92,0.921,0.921,0.921,0.921,0.921,0.921,0.921,0.92,0.92,0.92,0.92,0.919,0.919,0.917,0.917,0.917,0.917,0.919,0.919,0.917,0.917,0.919,0.919,0.92,0.92,0.92,0.919,0.919,0.919,0.919,0.919,0.919,0.917,0.917,0.917,0.917,0.916,0.916,0.916,0.916,0.916,0.916,0.916,0.915,0.915,0.915,0.913,0.915,0.915,0.913,0.912,0.912,0.912,0.912,0.912,0.912,0.912,0.912,0,0,0,0,0,0,0,0,0,0,0,0,0,0,0,0,0,0,0,0,0,0,0,0,0,0,0,0,0,0,0,0,0,0,0,0,0,0,0,0.325,0.324,0.324,0.324,0.323,0.323,0.322,0.321,0.321,0.32,0.319,0.318,0.318,0.317,0.317,0.316,0.316,0.315,0.315,0.314,0.314,0.313,0.313,0.312,0.311,0.311,0.31,0.309,0.309,0.308,0.307,0.307,0.306,0.305,0.305,0.304,0.304,0.303,0.303,0.302,0.302,0.302,0.301,0.301,0.301,0.3,0.3,0.299,0.299,0.298,0.298,0.297,0.297,0.296,0.296,0.295,0.295,0.294,0.294,0.293,0.293,0.292,0.292,0.291,0.291,0.29,0.29,0.289,0.289,0.288,0.288,0.287,0.287,0.286,0.285,0.285,0.285,0.284,0.284,0.283,0.283,0.283,0.282,0.282,0.282,0.281,0.281,0.28,0.28,0.279,0.279,0.278,0.278,0.278,0.277,0.277,0.276,0.276,0.275,0.274,0.274,0.274,0.273,0.273,0.272,0.272,0.271,0.271,0.271,0.27,0.27,0.27,0.269,0.269,0.268,0.268,0.268,0.267,0.267,0.267,0.267,0.267,0.267,0.266,0.267
0.934,0.934,0.935,0.935,0.934,0.934,0.934,0.934,0.934,0.933,0.933,0.933,0.934,0.934,0.935,0.934,0.934,0.934,0.934,0.934,0.934,0.934,0.934,0.934,0.934,0.934,0.934,0.934,0.934,0.934,0.934,0.935,0.935,0.935,0.935,0.937,0.937,0.937,0.937,0.937,0.937,0.937,0.937,0.935,0.935,0.935,0.935,0.935,0.934,0.934,0.934,0.934,0.934,0.933,0.933,0.933,0.933,0.933,0.933,0.931,0.931,0.931,0.931,0.93,0.93,0.93,0.931,0.931,0.931,0.931,0.931,0.931,0.931,0.933,0.933,0.933,0.933,0.933,0.933,0.933,0.931,0.931,0.931,0.93,0.93,0.93,0.93,0.928,0.927,0.927,0.928,0.928,0.927,0.927,0.927,0.928,0.93,0.93,0.931,0.931,0.931,0.933,0.933,0.933,0.933,0.931,0.931,0.931,0.93,0.93,0.93,0.93,0.93,0.93,0.928,0.928,0.928,0.928,0.928,0.927,0.926,0.926,0.926,0.924,0.924,0.923,0.923,0.923,0.923,0.921,0.923,0.923,0.921,0.921,0.923,0.923,0.923,0.923,0.923,0.923,0.924,0.924,0.924,0.926,0.926,0.927,0.927,0.928,0.928,0.928,0.93,0.93,0.93,0.931,0.931,0.931,0.931,0.931,0.931,0.931,0.93,0.93,0.928,0.928,0.928,0.928,0.928,0.927,0.928,0.928,0.928,0.928,0.928,0.93,0.93,0.93,0.931,0.931,0.931,0.931,0.931,0.931,0.931,0.931,0.931,0.93,0.931,0.93,0.93,0.93,0.928,0.928,0.928,0.93,0.93,0.93,0.93,0.928,0.928,0.926,0.926,0.924,0.924,0.923,0.923,0.923,0.921,0.921,0.92,0.92,0.919,0.919,0.917,0.917,0.917,0.919,0.917,0.919,0.917,0.917,0.917,0.916,0.916,0.916,0.915,0.915,0.913,0.913,0.912,0.912,0.912,0.912,0.911,0.909,0.908,0.908,0.908,0.909,0.908,0.908,0.908,0.908,0.908,0.908,0.908,0.908,0.908,0.907,0.905,0.905,0.905,0.905,0.904,0.905,0.904,0.904,0.904,0.904,0.904,0.904,0.905,0.905,0.905,0.907,0.908,0.909,0.911,0.912,0.912,0.912,0.913,0.913,0.913,0.915,0.915,0.915,0.916,0.916,0.916,0.916,0.916,0.916,0.916,0.917,0.916,0.915,0.915,0.913,0.912,0.912,0.912,0.912,0.912,0.912,0.912,0.912,0.913,0.913,0.913,0.912,0.912,0.913,0.913,0.913,0.913,0.913,0.913,0.913,0.913,0.913,0.913,0.913,0.913,0.913,0.913,0.915,0.915,0.915,0.916,0.916,0.916,0.915,0.915,0.915,0.915,0.915,0.915,0.913,0.912,0.912,0.912,0.912,0.912,0.913,0.913,0.913,0.913,0.915,0.915,0.916,0.916,0.916,0.916,0.916,0.916,0.916,0.916,0.916,0.916,0.916,0.916,0.916,0.916,0.916,0.915,0.915,0.915,0.915,0.913,0.913,0.913,0.912,0.913,0.913,0.913,0.913,0.913,0.912,0.912,0.913,0.913,0.913,0.913,0.913,0.913,0.913,0.913,0.913,0.913,0.912,0.912,0.912,0.912,0.912,0.912,0.912,0.911,0.911,0.912,0.911,0.911,0.911,0.911,0.908,0.909,0.909,0.908,0.908,0.907,0.907,0.908,0.908,0.908,0.908,0,0,0,0,0,0,0,0,0,0,0,0,0,0,0,0,0,0,0,0,0,0,0,0,0,0,0,0,0,0,0,0,0,0,0,0,0,0,0,0.325,0.325,0.325,0.324,0.324,0.324,0.323,0.322,0.321,0.321,0,0.319,0.318,0.318,0.317,0.317,0.316,0.316,0.315,0.315,0.314,0.314,0.313,0.312,0.312,0.311,0.311,0.31,0.309,0.309,0.308,0.307,0.307,0.306,0.305,0.305,0.304,0.304,0.303,0.303,0.302,0.302,0.302,0.301,0.301,0.301,0.3,0.3,0.299,0.299,0.298,0.298,0.297,0.297,0.296,0.296,0.295,0.295,0.294,0.294,0.293,0.293,0.292,0.292,0.291,0.291,0.29,0.29,0.289,0.289,0.288,0.288,0.287,0.287,0.286,0.285,0.285,0.284,0.284,0.284,0.283,0.283,0.283,0.282,0.282,0.282,0.281,0.281,0.28,0.28,0.28,0.279,0.279,0.278,0.278,0.277,0.277,0.276,0.276,0.275,0.274,0.274,0.273,0.273,0.272,0.272,0.272,0.271,0.271,0.271,0.27,0.27,0.27,0.269,0.269,0.268,0.268,0.268,0.267,0.267,0.267,0.267,0.267,0.267,0.267,0.266
0.928,0.93,0.93,0.931,0.931,0.931,0.931,0.931,0.931,0.931,0.931,0.931,0.931,0.931,0.931,0.931,0.931,0.93,0.93,0.93,0.93,0.93,0.93,0.93,0.93,0.93,0.93,0.93,0.93,0.93,0.93,0.931,0.931,0.931,0.931,0.931,0.933,0.933,0.933,0.933,0.933,0.931,0.931,0.931,0.931,0.93,0.93,0.93,0.93,0.93,0.93,0.93,0.928,0.928,0.928,0.928,0.928,0.928,0.928,0.927,0.927,0.927,0.926,0.926,0.926,0.926,0.927,0.926,0.926,0.926,0.927,0.927,0.927,0.928,0.928,0.928,0.928,0.928,0.927,0.927,0.927,0.926,0.926,0.924,0.924,0.923,0.923,0.921,0.921,0.92,0.921,0.921,0.921,0.921,0.923,0.923,0.924,0.924,0.926,0.926,0.927,0.927,0.928,0.928,0.928,0.927,0.927,0.927,0.927,0.926,0.926,0.926,0.924,0.924,0.924,0.924,0.923,0.923,0.923,0.923,0.921,0.92,0.92,0.92,0.92,0.919,0.919,0.919,0.917,0.917,0.919,0.919,0.919,0.919,0.919,0.919,0.919,0.919,0.919,0.919,0.919,0.919,0.92,0.92,0.921,0.921,0.921,0.921,0.921,0.923,0.924,0.924,0.924,0.924,0.924,0.924,0.924,0.924,0.926,0.924,0.924,0.923,0.923,0.923,0.923,0.923,0.923,0.923,0.923,0.923,0.923,0.924,0.924,0.926,0.924,0.926,0.926,0.924,0.924,0.924,0.926,0.926,0.926,0.926,0.926,0.926,0.926,0.926,0.926,0.926,0.926,0.926,0.926,0.926,0.924,0.924,0.924,0.924,0.923,0.921,0.92,0.919,0.919,0.919,0.917,0.917,0.916,0.916,0.915,0.915,0.913,0.913,0.912,0.912,0.912,0.912,0.912,0.913,0.912,0.912,0.912,0.911,0.911,0.911,0.909,0.909,0.909,0.908,0.908,0.908,0.908,0.908,0.907,0.905,0.905,0.905,0.905,0.905,0.905,0.905,0.905,0.905,0.907,0.907,0.907,0.907,0.907,0.905,0.904,0.904,0.904,0.903,0.903,0.903,0.903,0.901,0.901,0.903,0.903,0.903,0.904,0.904,0.904,0.905,0.905,0.907,0.908,0.908,0.909,0.909,0.909,0.909,0.911,0.911,0.911,0.911,0.912,0.912,0.912,0.912,0.912,0.912,0.912,0.911,0.911,0.911,0.909,0.908,0.907,0.907,0.907,0.907,0.907,0.907,0.907,0.907,0.907,0.908,0.907,0.907,0.907,0.907,0.907,0.907,0.908,0.908,0.908,0.908,0.908,0.908,0.907,0.908,0.908,0.908,0.908,0.909,0.909,0.909,0.909,0.911,0.909,0.909,0.909,0.909,0.909,0.909,0.909,0.908,0.907,0.907,0.907,0.907,0.908,0.908,0.908,0.908,0.909,0.911,0.911,0.911,0.911,0.911,0.911,0.911,0.911,0.911,0.911,0.911,0.911,0.911,0.911,0.911,0.911,0.911,0.909,0.909,0.908,0.908,0.908,0.908,0.908,0.908,0.908,0.908,0.908,0.908,0.908,0.908,0.908,0.908,0.907,0.908,0.907,0.907,0.907,0.907,0.907,0.907,0.907,0.907,0.907,0.907,0.907,0.907,0.907,0.907,0.905,0.905,0.905,0.905,0.905,0.904,0.904,0.904,0.904,0.904,0.904,0.903,0.903,0.903,0.903,0.903,0.903,0.904,0,0,0,0,0,0,0,0,0,0,0,0,0,0,0,0,0,0,0,0,0,0,0,0,0,0,0,0,0,0,0,0,0,0,0,0,0,0,0,0.326,0.325,0.325,0.324,0.324,0.324,0.323,0.322,0.321,0.321,0.32,0.319,0.318,0.318,0.317,0.317,0.316,0.316,0.315,0.315,0.314,0.314,0.313,0.312,0.312,0.311,0.311,0.31,0.309,0.309,0.308,0.307,0.307,0.306,0.305,0.305,0.304,0.304,0.304,0.303,0.303,0.302,0.302,0.302,0.301,0.301,0.3,0.3,0.299,0.299,0.298,0.298,0.297,0.297,0.296,0.296,0.295,0.295,0.294,0.294,0.293,0.293,0.292,0.292,0.291,0.291,0.29,0.29,0.289,0.289,0.288,0.288,0.287,0.287,0.286,0.285,0.285,0.284,0.284,0.284,0.283,0.283,0.283,0.282,0.282,0.282,0.281,0.281,0.281,0.28,0.28,0.279,0.279,0.278,0.278,0.277,0.277,0.276,0.275,0.275,0.274,0.274,0.273,0.273,0.272,0.272,0.272,0.271,0.271,0.271,0.271,0.27,0.27,0.269,0.269,0.268,0.268,0.267,0.267,0.267,0.267,0.267,0.267,0.267,0.267,0.267
0.923,0.926,0.926,0.927,0.927,0.927,0.928,0.928,0.93,0.928,0.928,0.928,0.928,0.928,0.928,0.927,0.926,0.926,0.924,0.924,0.924,0.926,0.924,0.924,0.924,0.924,0.924,0.924,0.926,0.926,0.927,0.927,0.927,0.927,0.927,0.927,0.928,0.928,0.928,0.927,0.927,0.928,0.927,0.927,0.927,0.927,0.926,0.926,0.926,0.926,0.926,0.926,0.926,0.924,0.924,0.924,0.924,0.924,0.924,0.924,0.923,0.923,0.923,0.923,0.923,0.923,0.923,0.923,0.923,0.923,0.923,0.923,0.923,0.924,0.924,0.924,0.924,0.924,0.923,0.923,0.923,0.921,0.92,0.919,0.919,0.919,0.917,0.916,0.915,0.915,0.916,0.916,0.916,0.917,0.917,0.917,0.919,0.92,0.921,0.921,0.921,0.923,0.923,0.923,0.923,0.923,0.923,0.921,0.921,0.921,0.92,0.92,0.92,0.919,0.919,0.919,0.919,0.917,0.917,0.917,0.916,0.916,0.916,0.916,0.915,0.915,0.915,0.913,0.913,0.913,0.915,0.915,0.915,0.915,0.915,0.915,0.915,0.915,0.915,0.915,0.915,0.915,0.915,0.916,0.916,0.916,0.917,0.916,0.916,0.917,0.917,0.917,0.917,0.919,0.919,0.919,0.919,0.919,0.919,0.919,0.919,0.919,0.917,0.917,0.917,0.917,0.916,0.917,0.917,0.917,0.919,0.919,0.92,0.921,0.92,0.92,0.92,0.92,0.921,0.92,0.92,0.92,0.92,0.921,0.921,0.921,0.921,0.921,0.921,0.921,0.921,0.92,0.92,0.92,0.92,0.92,0.92,0.919,0.917,0.915,0.915,0.915,0.913,0.913,0.913,0.912,0.911,0.911,0.909,0.909,0.909,0.908,0.907,0.907,0.907,0.907,0.908,0.907,0.907,0.907,0.905,0.904,0.905,0.905,0.904,0.904,0.904,0.904,0.904,0.904,0.904,0.903,0.903,0.901,0.901,0.901,0.903,0.903,0.903,0.903,0.903,0.903,0.904,0.904,0.905,0.904,0.904,0.903,0.901,0.901,0.901,0.901,0.901,0.9,0.9,0.9,0.9,0.9,0.901,0.901,0.901,0.901,0.903,0.903,0.904,0.905,0.905,0.905,0.905,0.907,0.907,0.907,0.907,0.907,0.908,0.908,0.908,0.908,0.908,0.908,0.908,0.907,0.907,0.907,0.905,0.905,0.904,0.903,0.901,0.901,0.901,0.901,0.901,0.9,0.9,0.901,0.901,0.901,0.901,0.901,0.901,0.901,0.901,0.901,0.901,0.903,0.903,0.903,0.903,0.901,0.901,0.901,0.903,0.903,0.903,0.903,0.903,0.903,0.904,0.904,0.904,0.903,0.903,0.903,0.904,0.904,0.904,0.903,0.903,0.903,0.903,0.903,0.903,0.903,0.903,0.904,0.904,0.904,0.904,0.904,0.904,0.904,0.904,0.904,0.904,0.904,0.904,0.905,0.904,0.904,0.904,0.904,0.904,0.904,0.903,0.903,0.903,0.903,0.903,0.903,0.903,0.903,0.903,0.903,0.903,0.903,0.903,0.903,0.901,0.901,0.9,0.901,0.901,0.901,0.901,0.901,0.901,0.901,0.901,0.903,0.903,0.903,0.903,0.903,0.903,0.901,0.9,0.9,0.9,0.9,0.899,0.899,0.899,0.897,0.899,0.897,0.897,0.897,0.897,0.897,0.897,0.896,0.896,0,0,0,0,0,0,0,0,0,0,0,0,0,0,0,0,0,0,0,0,0,0,0,0,0,0,0,0,0,0,0,0,0,0,0,0,0,0,0,0.326,0.326,0.325,0.325,0.325,0.324,0.324,0.323,0.322,0.321,0.321,0.32,0,0.318,0.318,0.317,0.317,0.316,0.316,0.315,0.315,0.314,0.314,0.313,0.312,0.312,0.311,0.311,0.31,0.309,0.309,0.308,0.307,0.307,0.306,0.306,0.305,0.305,0.304,0.304,0.303,0.303,0.302,0.302,0.302,0.301,0.301,0.3,0.3,0.299,0.299,0.298,0.298,0.297,0.297,0.296,0.296,0.295,0.295,0.294,0.294,0.293,0.293,0.292,0.292,0.291,0.291,0.29,0.29,0.289,0.289,0.288,0.288,0.287,0.287,0.286,0.285,0.285,0.284,0.284,0.284,0.283,0.283,0.283,0.283,0.282,0.282,0.281,0.281,0.281,0.28,0.28,0.279,0.279,0.278,0.278,0.277,0.276,0.276,0.275,0.275,0.274,0.274,0.273,0.273,0.273,0.272,0.272,0.272,0.271,0.271,0.271,0.27,0.27,0.269,0.269,0.268,0.268,0.267,0.267,0.267,0.267,0.267,0.267,0.267,0.267,0.267
0.919,0.921,0.921,0.923,0.924,0.924,0.926,0.926,0.927,0.926,0.926,0.924,0.924,0.924,0.924,0.923,0.921,0.92,0.92,0.92,0.919,0.92,0.919,0.919,0.92,0.92,0.92,0.92,0.92,0.921,0.923,0.923,0.923,0.924,0.924,0.924,0.926,0.924,0.924,0.923,0.923,0.923,0.923,0.921,0.921,0.921,0.921,0.921,0.92,0.92,0.921,0.921,0.92,0.92,0.92,0.92,0.92,0.92,0.92,0.92,0.919,0.919,0.919,0.919,0.919,0.919,0.919,0.919,0.919,0.919,0.919,0.919,0.919,0.92,0.92,0.92,0.92,0.92,0.92,0.919,0.919,0.916,0.916,0.915,0.913,0.913,0.912,0.911,0.909,0.909,0.911,0.911,0.911,0.912,0.912,0.913,0.915,0.916,0.916,0.917,0.919,0.919,0.919,0.919,0.919,0.917,0.917,0.917,0.917,0.916,0.916,0.916,0.915,0.915,0.915,0.915,0.913,0.913,0.912,0.912,0.911,0.911,0.911,0.911,0.911,0.911,0.909,0.909,0.909,0.909,0.909,0.909,0.909,0.911,0.911,0.911,0.911,0.911,0.912,0.912,0.911,0.911,0.911,0.911,0.911,0.911,0.911,0.911,0.911,0.911,0.912,0.912,0.912,0.912,0.912,0.912,0.912,0.912,0.912,0.912,0.912,0.912,0.912,0.912,0.911,0.912,0.912,0.913,0.913,0.913,0.915,0.916,0.916,0.917,0.917,0.917,0.916,0.916,0.916,0.916,0.915,0.915,0.915,0.915,0.916,0.916,0.917,0.917,0.917,0.917,0.917,0.916,0.916,0.915,0.915,0.913,0.913,0.912,0.912,0.909,0.909,0.909,0.907,0.908,0.908,0.907,0.905,0.905,0.905,0.904,0.904,0.903,0.901,0.901,0.9,0.901,0.901,0.901,0.901,0.901,0.9,0.9,0.9,0.9,0.899,0.899,0.899,0.899,0.899,0.9,0.9,0.9,0.899,0.899,0.899,0.9,0.9,0.9,0.9,0.9,0.9,0.9,0.901,0.901,0.901,0.901,0.901,0.9,0.899,0.899,0.899,0.899,0.899,0.899,0.897,0.897,0.897,0.899,0.899,0.899,0.9,0.9,0.9,0.901,0.901,0.903,0.903,0.903,0.903,0.903,0.903,0.903,0.904,0.904,0.904,0.904,0.904,0.904,0.904,0.904,0.904,0.903,0.903,0.901,0.901,0.9,0.899,0.897,0.896,0.896,0.896,0.896,0.896,0.895,0.895,0.896,0.896,0.897,0.896,0.896,0.896,0.896,0.896,0.896,0.896,0.896,0.897,0.897,0.897,0.896,0.896,0.896,0.897,0.897,0.897,0.897,0.897,0.897,0.897,0.897,0.897,0.897,0.897,0.897,0.897,0.897,0.899,0.899,0.897,0.899,0.899,0.899,0.899,0.899,0.899,0.899,0.899,0.899,0.899,0.899,0.899,0.899,0.899,0.899,0.899,0.899,0.899,0.899,0.899,0.899,0.899,0.899,0.899,0.899,0.897,0.897,0.897,0.897,0.897,0.897,0.897,0.899,0.899,0.899,0.897,0.897,0.897,0.897,0.896,0.895,0.895,0.895,0.895,0.895,0.895,0.895,0.895,0.895,0.896,0.896,0.897,0.897,0.897,0.897,0.897,0.896,0.896,0.896,0.896,0.895,0.895,0.894,0.894,0.892,0.892,0.892,0.892,0.892,0.891,0.891,0.891,0.891,0.891,0,0,0,0,0,0,0,0,0,0,0,0,0,0,0,0,0,0,0,0,0,0,0,0,0,0,0,0,0,0,0,0,0,0,0,0,0,0,0,0.326,0.326,0.325,0.325,0.325,0.324,0.324,0.323,0.322,0.322,0.321,0.32,0.319,0.319,0.318,0.317,0.317,0.316,0.316,0.315,0.315,0.314,0.313,0.313,0.312,0.312,0.311,0.31,0.31,0.309,0.309,0.308,0.308,0.307,0.306,0.306,0.305,0.305,0.304,0.304,0.303,0.303,0.302,0.302,0.302,0.301,0.301,0.3,0.3,0.299,0.299,0.298,0.298,0.297,0.297,0.296,0.296,0.295,0.295,0.294,0.294,0.293,0.293,0.292,0.292,0.291,0.291,0.29,0.29,0.289,0.289,0.288,0.288,0.287,0.287,0.286,0.285,0.285,0.284,0.284,0.284,0.283,0.283,0.283,0.283,0.282,0.282,0.282,0.281,0.281,0.28,0.28,0.279,0.279,0.278,0.278,0.277,0.276,0.276,0.275,0.275,0.274,0.274,0.273,0.273,0.273,0.272,0.272,0.272,0.271,0.271,0.271,0.27,0.27,0.269,0.269,0.268,0.268,0.267,0.267,0.267,0.267,0.267,0.267,0,0,0
0.916,0.916,0.919,0.919,0.92,0.921,0.921,0.923,0.923,0.923,0.921,0.92,0.92,0.92,0.92,0.917,0.917,0.916,0.915,0.915,0.913,0.915,0.915,0.915,0.915,0.915,0.915,0.915,0.916,0.916,0.917,0.917,0.919,0.919,0.92,0.92,0.92,0.92,0.92,0.919,0.919,0.917,0.917,0.916,0.916,0.916,0.916,0.916,0.916,0.916,0.916,0.916,0.916,0.916,0.916,0.916,0.916,0.916,0.916,0.916,0.915,0.915,0.915,0.915,0.915,0.915,0.915,0.915,0.915,0.915,0.915,0.915,0.915,0.916,0.916,0.916,0.916,0.915,0.915,0.915,0.913,0.912,0.911,0.909,0.908,0.908,0.907,0.905,0.904,0.904,0.905,0.905,0.907,0.908,0.908,0.909,0.909,0.911,0.912,0.913,0.913,0.913,0.913,0.913,0.913,0.913,0.913,0.913,0.912,0.912,0.912,0.911,0.911,0.911,0.909,0.909,0.909,0.908,0.908,0.907,0.907,0.907,0.907,0.905,0.905,0.905,0.904,0.905,0.905,0.905,0.905,0.905,0.905,0.905,0.907,0.907,0.907,0.908,0.908,0.908,0.907,0.907,0.907,0.907,0.907,0.907,0.905,0.905,0.905,0.905,0.907,0.907,0.907,0.907,0.907,0.907,0.907,0.907,0.905,0.905,0.907,0.907,0.907,0.907,0.907,0.908,0.909,0.909,0.911,0.911,0.912,0.912,0.913,0.913,0.913,0.913,0.912,0.912,0.912,0.911,0.911,0.909,0.909,0.911,0.911,0.912,0.912,0.912,0.912,0.912,0.912,0.909,0.909,0.909,0.908,0.907,0.907,0.905,0.905,0.904,0.903,0.903,0.901,0.901,0.901,0.901,0.9,0.9,0.9,0.899,0.899,0.899,0.897,0.897,0.896,0.896,0.896,0.897,0.897,0.896,0.896,0.895,0.896,0.895,0.895,0.895,0.895,0.895,0.895,0.896,0.896,0.896,0.896,0.896,0.896,0.897,0.897,0.897,0.897,0.897,0.897,0.897,0.899,0.897,0.899,0.899,0.897,0.897,0.896,0.896,0.896,0.895,0.896,0.895,0.895,0.895,0.895,0.895,0.896,0.896,0.897,0.897,0.899,0.899,0.899,0.899,0.899,0.9,0.899,0.899,0.9,0.9,0.9,0.9,0.9,0.9,0.9,0.9,0.899,0.899,0.899,0.897,0.896,0.896,0.896,0.895,0.894,0.892,0.891,0.891,0.892,0.892,0.892,0.891,0.891,0.892,0.892,0.894,0.894,0.892,0.892,0.892,0.892,0.892,0.892,0.892,0.892,0.892,0.892,0.892,0.892,0.892,0.892,0.892,0.892,0.892,0.892,0.892,0.892,0.892,0.892,0.892,0.892,0.892,0.892,0.894,0.894,0.894,0.894,0.894,0.894,0.894,0.894,0.894,0.894,0.894,0.894,0.894,0.894,0.894,0.894,0.894,0.894,0.892,0.892,0.892,0.892,0.892,0.892,0.892,0.892,0.892,0.892,0.892,0.892,0.892,0.892,0.892,0.892,0.892,0.892,0.894,0.894,0.894,0.892,0.892,0.892,0.892,0.891,0.89,0.89,0.89,0.89,0.89,0.89,0.89,0.89,0.89,0.891,0.891,0.892,0.892,0.892,0.894,0.892,0.891,0.891,0.891,0.891,0.89,0.89,0.888,0.888,0.887,0.887,0.887,0.887,0.886,0.886,0.886,0.886,0.885,0.885,0,0,0,0,0,0,0,0,0,0,0,0,0,0,0,0,0,0,0,0,0,0,0,0,0,0,0,0,0,0,0,0,0,0,0,0,0,0,0.327,0.326,0.326,0.326,0.325,0.325,0.324,0.324,0.323,0.322,0.321,0.321,0.32,0.319,0.319,0.318,0.317,0.317,0.316,0.316,0.315,0.315,0.314,0.313,0.313,0.312,0.311,0.311,0.31,0.31,0.309,0.309,0.308,0.308,0.307,0.307,0.306,0.305,0.305,0.304,0.304,0.304,0.303,0.303,0.302,0.302,0.301,0.301,0.3,0.3,0.299,0.299,0.298,0.298,0.297,0.297,0.296,0.296,0.295,0.295,0.294,0.294,0.293,0.293,0.292,0.292,0.292,0.291,0.291,0.29,0.29,0.289,0.289,0.288,0.287,0.287,0.286,0.285,0.285,0.284,0.284,0.284,0.283,0.283,0.283,0.283,0.282,0.282,0.282,0.281,0.281,0.28,0.28,0.279,0.279,0.278,0.278,0.277,0.276,0.276,0.275,0.275,0.274,0.274,0.273,0.273,0.273,0.272,0.272,0.272,0.271,0.271,0.271,0.27,0.27,0.269,0.269,0.268,0.268,0.267,0.267,0.267,0.267,0.267,0,0,0,0
0.913,0.913,0.916,0.916,0.917,0.917,0.917,0.919,0.919,0.917,0.917,0.917,0.916,0.916,0.915,0.913,0.912,0.911,0.911,0.909,0.909,0.909,0.909,0.909,0.909,0.909,0.909,0.909,0.911,0.912,0.912,0.913,0.913,0.915,0.915,0.916,0.916,0.916,0.916,0.915,0.913,0.912,0.912,0.911,0.911,0.909,0.911,0.911,0.911,0.911,0.912,0.912,0.912,0.912,0.912,0.912,0.912,0.912,0.911,0.911,0.911,0.911,0.911,0.911,0.911,0.911,0.911,0.911,0.911,0.909,0.911,0.911,0.911,0.911,0.912,0.912,0.911,0.911,0.911,0.911,0.908,0.908,0.905,0.904,0.903,0.903,0.901,0.901,0.9,0.9,0.901,0.901,0.903,0.904,0.904,0.905,0.905,0.907,0.907,0.908,0.908,0.908,0.909,0.909,0.909,0.909,0.908,0.908,0.908,0.908,0.908,0.907,0.907,0.905,0.905,0.905,0.904,0.904,0.903,0.901,0.901,0.901,0.901,0.901,0.9,0.9,0.9,0.9,0.9,0.901,0.901,0.901,0.901,0.903,0.903,0.904,0.904,0.905,0.905,0.905,0.904,0.904,0.904,0.904,0.903,0.903,0.901,0.901,0.901,0.901,0.901,0.901,0.9,0.9,0.901,0.901,0.9,0.9,0.9,0.899,0.901,0.901,0.901,0.901,0.901,0.903,0.904,0.905,0.905,0.905,0.907,0.907,0.907,0.908,0.908,0.908,0.907,0.907,0.907,0.905,0.904,0.904,0.904,0.904,0.904,0.905,0.905,0.905,0.904,0.904,0.904,0.901,0.901,0.901,0.901,0.9,0.9,0.899,0.899,0.897,0.897,0.896,0.895,0.896,0.896,0.896,0.895,0.895,0.895,0.895,0.895,0.895,0.894,0.894,0.894,0.894,0.894,0.894,0.894,0.894,0.892,0.892,0.892,0.891,0.891,0.891,0.891,0.891,0.891,0.892,0.892,0.892,0.892,0.892,0.892,0.894,0.894,0.894,0.895,0.895,0.895,0.895,0.895,0.895,0.895,0.895,0.894,0.894,0.892,0.892,0.892,0.892,0.892,0.892,0.891,0.891,0.891,0.892,0.892,0.894,0.894,0.895,0.895,0.895,0.895,0.895,0.895,0.896,0.896,0.896,0.896,0.896,0.896,0.896,0.896,0.895,0.896,0.895,0.895,0.895,0.894,0.894,0.892,0.892,0.891,0.89,0.89,0.89,0.888,0.887,0.887,0.888,0.888,0.887,0.887,0.888,0.888,0.89,0.89,0.888,0.888,0.888,0.888,0.888,0.888,0.888,0.888,0.888,0.888,0.888,0.888,0.887,0.887,0.887,0.887,0.887,0.888,0.888,0.887,0.887,0.887,0.887,0.887,0.888,0.888,0.888,0.888,0.89,0.888,0.888,0.89,0.89,0.888,0.888,0.888,0.888,0.888,0.888,0.888,0.888,0.887,0.887,0.887,0.887,0.887,0.887,0.887,0.887,0.887,0.887,0.887,0.887,0.887,0.886,0.886,0.886,0.886,0.887,0.887,0.887,0.887,0.887,0.887,0.887,0.887,0.887,0.887,0.886,0.886,0.885,0.885,0.883,0.883,0.885,0.885,0.885,0.885,0.885,0.885,0.886,0.887,0.887,0.887,0.887,0.887,0.886,0.886,0.886,0.885,0.885,0.885,0.883,0.883,0.883,0.882,0.882,0.882,0.882,0.881,0.88,0.88,0.88,0,0,0,0,0,0,0,0,0,0,0,0,0,0,0,0,0,0,0,0,0,0,0,0,0,0,0,0,0,0,0,0,0,0,0,0,0,0,0,0,0,0,0.326,0.325,0.325,0.324,0.324,0.323,0.322,0.322,0.321,0.32,0.32,0.319,0.318,0.318,0.317,0.316,0.316,0.315,0.315,0.314,0.313,0.313,0.312,0.311,0.311,0.31,0.31,0.309,0.309,0.308,0.308,0.307,0.307,0.306,0.306,0.305,0.305,0.304,0.304,0.303,0.303,0.302,0.302,0.301,0.301,0.3,0.3,0.299,0.299,0.298,0.298,0.297,0.297,0.296,0.296,0.295,0.295,0.294,0.294,0.293,0.293,0.292,0.292,0.292,0.291,0.29,0.29,0.29,0.289,0.289,0.288,0.287,0.287,0.286,0.286,0.285,0.285,0.284,0.284,0.283,0.283,0.283,0.283,0.282,0.282,0.282,0.281,0.281,0.28,0.28,0.279,0.279,0.278,0.278,0.277,0.276,0.276,0.275,0.275,0.274,0.274,0.273,0.273,0.273,0.272,0.272,0.272,0.271,0.271,0.271,0.27,0.27,0.269,0.269,0.268,0.268,0.267,0.267,0.267,0.267,0,0,0,0,0
0.909,0.911,0.911,0.912,0.913,0.913,0.913,0.913,0.913,0.913,0.913,0.912,0.912,0.911,0.909,0.909,0.908,0.907,0.905,0.904,0.904,0.904,0.904,0.904,0.904,0.904,0.904,0.904,0.905,0.905,0.907,0.908,0.908,0.909,0.909,0.911,0.911,0.912,0.911,0.909,0.909,0.909,0.908,0.907,0.905,0.905,0.905,0.905,0.905,0.905,0.907,0.907,0.908,0.907,0.908,0.907,0.907,0.907,0.907,0.907,0.907,0.907,0.907,0.907,0.907,0.905,0.905,0.905,0.905,0.905,0.904,0.904,0.905,0.907,0.907,0.908,0.908,0.908,0.907,0.907,0.907,0.904,0.903,0.901,0.9,0.9,0.899,0.897,0.897,0.897,0.897,0.897,0.899,0.899,0.9,0.901,0.903,0.903,0.903,0.903,0.904,0.904,0.904,0.904,0.904,0.904,0.903,0.903,0.903,0.903,0.903,0.901,0.901,0.9,0.9,0.9,0.899,0.899,0.897,0.897,0.897,0.897,0.897,0.897,0.897,0.897,0.897,0.897,0.899,0.899,0.899,0.899,0.899,0.9,0.9,0.901,0.901,0.901,0.903,0.901,0.901,0.901,0.9,0.9,0.899,0.897,0.897,0.897,0.896,0.897,0.897,0.897,0.896,0.896,0.896,0.896,0.895,0.895,0.896,0.896,0.896,0.897,0.897,0.899,0.899,0.9,0.901,0.901,0.901,0.901,0.903,0.903,0.903,0.904,0.903,0.901,0.901,0.9,0.899,0.899,0.897,0.896,0.896,0.896,0.896,0.896,0.896,0.895,0.895,0.895,0.895,0.894,0.894,0.894,0.894,0.894,0.892,0.891,0.891,0.891,0.891,0.89,0.89,0.89,0.891,0.891,0.891,0.891,0.892,0.892,0.892,0.891,0.891,0.891,0.891,0.891,0.89,0.89,0.89,0.89,0.888,0.888,0.888,0.888,0.888,0.888,0.887,0.887,0.887,0.888,0.888,0.888,0.888,0.888,0.888,0.888,0.89,0.89,0.891,0.89,0.89,0.89,0.89,0.89,0.89,0.89,0.89,0.888,0.888,0.888,0.888,0.888,0.888,0.888,0.887,0.887,0.887,0.888,0.888,0.888,0.89,0.89,0.89,0.891,0.891,0.891,0.891,0.891,0.891,0.89,0.89,0.891,0.891,0.891,0.891,0.891,0.891,0.891,0.891,0.89,0.89,0.888,0.888,0.887,0.887,0.886,0.885,0.885,0.883,0.883,0.883,0.885,0.885,0.883,0.883,0.885,0.885,0.885,0.885,0.885,0.885,0.885,0.885,0.885,0.885,0.885,0.883,0.883,0.883,0.883,0.883,0.883,0.883,0.883,0.882,0.883,0.883,0.885,0.883,0.883,0.882,0.882,0.883,0.883,0.883,0.883,0.883,0.883,0.883,0.883,0.885,0.885,0.885,0.883,0.883,0.882,0.883,0.883,0.883,0.882,0.882,0.882,0.882,0.882,0.882,0.882,0.882,0.882,0.882,0.882,0.882,0.882,0.881,0.881,0.881,0.881,0.881,0.882,0.882,0.882,0.883,0.883,0.882,0.882,0.882,0.882,0.882,0.882,0.881,0.88,0.88,0.88,0.88,0.88,0.88,0.88,0.88,0.88,0.88,0.881,0.882,0.882,0.882,0.882,0.882,0.882,0.882,0.881,0.881,0.881,0.88,0.881,0.878,0.878,0.878,0.878,0.878,0.877,0.877,0.876,0.876,0.875,0.875,0,0,0,0,0,0,0,0,0,0,0,0,0,0,0,0,0,0,0,0,0,0,0,0,0,0,0,0,0,0,0,0,0,0,0,0,0,0,0,0,0.326,0.326,0.325,0.325,0.324,0.324,0.323,0.322,0.322,0.321,0.32,0.32,0.319,0.318,0.318,0.317,0.317,0.316,0.315,0.314,0.314,0.313,0.312,0.312,0.311,0.311,0.31,0.31,0.309,0.309,0.308,0.308,0.307,0.307,0.306,0.306,0.305,0.305,0.304,0.304,0.303,0.303,0.302,0.302,0.301,0.301,0.3,0.3,0.299,0.299,0.298,0.298,0.297,0.297,0.296,0.296,0.295,0.295,0.294,0.294,0.293,0.293,0.292,0.292,0.291,0.291,0.29,0.29,0.29,0.289,0.289,0.288,0.288,0.287,0.286,0.286,0.285,0.285,0.284,0.284,0.284,0.283,0.283,0.283,0.282,0.282,0.282,0.281,0.281,0.28,0.28,0.279,0.279,0.278,0.278,0.277,0.277,0.276,0.275,0.275,0.274,0.274,0.274,0.273,0.273,0.272,0.272,0.272,0.271,0.271,0.271,0.27,0.27,0.269,0.269,0.268,0.268,0.267,0.267,0.267,0.267,0,0,0,0,0
0.904,0.905,0.907,0.907,0.907,0.908,0.908,0.909,0.909,0.908,0.908,0.907,0.907,0.905,0.905,0.903,0.901,0.901,0.9,0.899,0.899,0.899,0.899,0.899,0.899,0.899,0.899,0.899,0.9,0.9,0.901,0.901,0.903,0.904,0.904,0.905,0.905,0.905,0.905,0.905,0.904,0.903,0.903,0.901,0.9,0.9,0.9,0.9,0.899,0.901,0.901,0.901,0.903,0.903,0.904,0.903,0.903,0.903,0.903,0.903,0.903,0.903,0.903,0.903,0.903,0.903,0.903,0.901,0.901,0.9,0.901,0.901,0.901,0.903,0.903,0.904,0.904,0.904,0.904,0.904,0.903,0.901,0.9,0.899,0.896,0.896,0.895,0.894,0.894,0.894,0.894,0.895,0.896,0.897,0.897,0.899,0.899,0.9,0.9,0.9,0.899,0.899,0.899,0.899,0.899,0.899,0.899,0.899,0.899,0.899,0.897,0.897,0.896,0.896,0.896,0.895,0.895,0.894,0.894,0.894,0.892,0.894,0.894,0.894,0.894,0.894,0.894,0.894,0.894,0.896,0.896,0.896,0.896,0.897,0.897,0.899,0.899,0.9,0.899,0.899,0.897,0.897,0.896,0.896,0.895,0.894,0.892,0.892,0.891,0.891,0.891,0.891,0.89,0.89,0.888,0.89,0.888,0.89,0.89,0.891,0.891,0.894,0.894,0.895,0.895,0.896,0.897,0.899,0.899,0.897,0.897,0.897,0.896,0.896,0.895,0.892,0.891,0.89,0.89,0.888,0.888,0.888,0.887,0.887,0.887,0.888,0.887,0.887,0.887,0.886,0.886,0.885,0.885,0.886,0.885,0.886,0.886,0.886,0.886,0.886,0.886,0.886,0.886,0.886,0.887,0.887,0.887,0.887,0.887,0.888,0.888,0.888,0.887,0.887,0.886,0.886,0.886,0.886,0.885,0.885,0.885,0.883,0.883,0.883,0.883,0.883,0.883,0.883,0.883,0.883,0.883,0.883,0.883,0.883,0.883,0.883,0.885,0.885,0.886,0.886,0.885,0.885,0.885,0.885,0.885,0.885,0.885,0.885,0.885,0.885,0.883,0.883,0.883,0.883,0.882,0.882,0.883,0.883,0.883,0.883,0.885,0.885,0.885,0.886,0.886,0.886,0.886,0.886,0.886,0.885,0.885,0.886,0.886,0.886,0.886,0.886,0.886,0.886,0.886,0.885,0.885,0.885,0.883,0.883,0.882,0.882,0.881,0.881,0.88,0.88,0.881,0.881,0.881,0.88,0.88,0.88,0.88,0.881,0.881,0.881,0.881,0.881,0.881,0.881,0.881,0.88,0.88,0.88,0.88,0.88,0.88,0.878,0.878,0.878,0.878,0.878,0.878,0.88,0.878,0.878,0.878,0.877,0.878,0.878,0.878,0.878,0.878,0.878,0.878,0.878,0.88,0.88,0.88,0.88,0.878,0.878,0.878,0.878,0.878,0.878,0.877,0.877,0.877,0.877,0.877,0.877,0.877,0.877,0.877,0.877,0.877,0.877,0.877,0.877,0.876,0.876,0.876,0.876,0.876,0.877,0.877,0.878,0.877,0.877,0.877,0.877,0.877,0.877,0.876,0.876,0.875,0.875,0.875,0.875,0.875,0.875,0.875,0.875,0.876,0.877,0.877,0.877,0.877,0.877,0.877,0.877,0.877,0.877,0.877,0.877,0.876,0.876,0.875,0.875,0.873,0.873,0.875,0.873,0.873,0.872,0.871,0.871,0.871,0.87,0,0,0,0,0,0,0,0,0,0,0,0,0,0,0,0,0,0,0,0,0,0,0,0,0,0,0,0,0,0,0,0,0,0,0,0,0,0.327,0.326,0.326,0.325,0.325,0.325,0.324,0.324,0.323,0.322,0.321,0.321,0.32,0.32,0.319,0.318,0.318,0.317,0.317,0.316,0.315,0.314,0.314,0.313,0.312,0.312,0.311,0.311,0.31,0.31,0.309,0.309,0.308,0.308,0.307,0.307,0.306,0.306,0.305,0.305,0.304,0.304,0.303,0.303,0.302,0.302,0.301,0.301,0.3,0.3,0.299,0.299,0.298,0.298,0.297,0.297,0.296,0.296,0.295,0.295,0.294,0.294,0.293,0.293,0.292,0.292,0.291,0.291,0.29,0.29,0.29,0.289,0.289,0.288,0.288,0.287,0.286,0.286,0.285,0.285,0.285,0.284,0.284,0.283,0.283,0.283,0.282,0.282,0.282,0.281,0.281,0.28,0.28,0.279,0.279,0.278,0.278,0.277,0.277,0.276,0.276,0.275,0.274,0.274,0.274,0.273,0.273,0.272,0.272,0.272,0.271,0.271,0.271,0.27,0.27,0.269,0.269,0.268,0.268,0.268,0.267,0.267,0.267,0,0,0,0,0
0.9,0.9,0.901,0.901,0.901,0.901,0.903,0.903,0.903,0.901,0.901,0.9,0.899,0.899,0.897,0.897,0.896,0.895,0.894,0.894,0.894,0.894,0.894,0.894,0.894,0.894,0.894,0.894,0.895,0.895,0.895,0.896,0.896,0.897,0.899,0.9,0.9,0.9,0.9,0.9,0.899,0.897,0.896,0.896,0.895,0.895,0.895,0.895,0.895,0.896,0.897,0.897,0.899,0.899,0.899,0.899,0.899,0.9,0.9,0.9,0.9,0.9,0.9,0.9,0.9,0.9,0.897,0.897,0.896,0.896,0.897,0.896,0.897,0.897,0.899,0.899,0.9,0.9,0.9,0.901,0.9,0.899,0.897,0.895,0.894,0.892,0.891,0.891,0.89,0.89,0.89,0.891,0.892,0.894,0.894,0.895,0.895,0.896,0.896,0.895,0.895,0.895,0.895,0.895,0.895,0.895,0.895,0.895,0.894,0.894,0.894,0.894,0.892,0.892,0.892,0.892,0.892,0.891,0.891,0.891,0.89,0.89,0.89,0.89,0.89,0.89,0.891,0.891,0.892,0.892,0.894,0.894,0.894,0.894,0.895,0.895,0.896,0.896,0.896,0.896,0.895,0.894,0.892,0.892,0.89,0.888,0.887,0.887,0.886,0.885,0.885,0.883,0.882,0.882,0.882,0.883,0.882,0.883,0.885,0.886,0.887,0.888,0.89,0.891,0.891,0.892,0.894,0.894,0.892,0.891,0.891,0.89,0.888,0.887,0.887,0.885,0.882,0.882,0.882,0.881,0.88,0.88,0.88,0.88,0.88,0.88,0.88,0.88,0.88,0.878,0.878,0.877,0.878,0.878,0.878,0.878,0.88,0.88,0.881,0.881,0.882,0.882,0.883,0.883,0.883,0.883,0.883,0.883,0.885,0.885,0.885,0.883,0.882,0.882,0.881,0.881,0.881,0.88,0.88,0.88,0.878,0.878,0.878,0.878,0.878,0.878,0.878,0.878,0.878,0.878,0.878,0.878,0.878,0.878,0.88,0.88,0.88,0.88,0.881,0.881,0.881,0.881,0.88,0.88,0.88,0.881,0.88,0.88,0.88,0.88,0.88,0.88,0.878,0.878,0.877,0.877,0.878,0.878,0.877,0.878,0.878,0.88,0.88,0.881,0.881,0.881,0.881,0.881,0.88,0.88,0.88,0.88,0.88,0.88,0.881,0.881,0.881,0.881,0.881,0.881,0.88,0.88,0.88,0.878,0.878,0.878,0.877,0.877,0.876,0.876,0.877,0.877,0.877,0.876,0.876,0.876,0.877,0.877,0.877,0.877,0.877,0.876,0.876,0.876,0.876,0.876,0.876,0.876,0.876,0.875,0.875,0.875,0.875,0.873,0.873,0.875,0.875,0.875,0.873,0.873,0.873,0.872,0.873,0.873,0.873,0.873,0.873,0.873,0.873,0.873,0.876,0.876,0.875,0.875,0.875,0.873,0.873,0.873,0.873,0.873,0.872,0.872,0.872,0.872,0.872,0.872,0.872,0.872,0.872,0.872,0.872,0.872,0.872,0.872,0.871,0.871,0.871,0.871,0.871,0.872,0.872,0.872,0.872,0.872,0.872,0.872,0.872,0.872,0.871,0.871,0.871,0.87,0.87,0.87,0.87,0.87,0.871,0.871,0.871,0.872,0.872,0.872,0.873,0.873,0.873,0.873,0.873,0.872,0.872,0.872,0.872,0.872,0.871,0.871,0.871,0.871,0.871,0.87,0.87,0.868,0.867,0.867,0.866,0.866,0,0,0,0,0,0,0,0,0,0,0,0,0,0,0,0,0,0,0,0,0,0,0,0,0,0,0,0,0,0,0,0,0,0,0,0,0,0.327,0.326,0.326,0.325,0.325,0.325,0.324,0.324,0.323,0.322,0.322,0.321,0.32,0.32,0.319,0.318,0.318,0.317,0.317,0.316,0.315,0.314,0.314,0.313,0.312,0.312,0.311,0.311,0.31,0.31,0.309,0.309,0.308,0.308,0.307,0.307,0.306,0.306,0.305,0.305,0.304,0.304,0.303,0.303,0.302,0.302,0.301,0.301,0.3,0.3,0.299,0.299,0.298,0.298,0.297,0.297,0.296,0.296,0.295,0.295,0.294,0.294,0.293,0.293,0.292,0.292,0.291,0.291,0.29,0.29,0.29,0.289,0.289,0.288,0.288,0.287,0.287,0.286,0.286,0.285,0.285,0.284,0.284,0.284,0.283,0.283,0.282,0.282,0.282,0.281,0.281,0.28,0.28,0.279,0.279,0.278,0.278,0.277,0.277,0.276,0.276,0.275,0.275,0.274,0.274,0.273,0.273,0.272,0.272,0.272,0.271,0.271,0.271,0.27,0.27,0.269,0.269,0.269,0.268,0.268,0.267,0.267,0.267,0,0,0,0,0
0.896,0.895,0.896,0.896,0.896,0.896,0.896,0.896,0.896,0.895,0.895,0.895,0.894,0.892,0.892,0.891,0.891,0.89,0.888,0.888,0.887,0.887,0.887,0.887,0.887,0.888,0.888,0.888,0.888,0.888,0.89,0.891,0.891,0.892,0.894,0.895,0.895,0.896,0.895,0.895,0.894,0.892,0.892,0.891,0.89,0.89,0.89,0.891,0.891,0.892,0.892,0.894,0.894,0.895,0.896,0.895,0.896,0.896,0.896,0.896,0.896,0.896,0.896,0.896,0.896,0.896,0.895,0.894,0.894,0.892,0.894,0.892,0.894,0.894,0.894,0.894,0.895,0.896,0.896,0.896,0.896,0.895,0.894,0.892,0.891,0.89,0.888,0.887,0.887,0.887,0.887,0.887,0.888,0.89,0.89,0.89,0.891,0.891,0.891,0.891,0.89,0.891,0.891,0.89,0.891,0.891,0.891,0.891,0.891,0.891,0.89,0.89,0.89,0.888,0.89,0.888,0.888,0.888,0.887,0.887,0.887,0.887,0.887,0.887,0.887,0.887,0.888,0.888,0.888,0.891,0.89,0.89,0.89,0.89,0.891,0.891,0.892,0.891,0.892,0.892,0.891,0.89,0.888,0.887,0.886,0.883,0.882,0.881,0.88,0.88,0.878,0.878,0.877,0.877,0.877,0.877,0.877,0.878,0.88,0.881,0.883,0.883,0.885,0.886,0.886,0.887,0.888,0.888,0.887,0.886,0.885,0.883,0.882,0.881,0.88,0.877,0.876,0.876,0.875,0.875,0.873,0.873,0.873,0.872,0.872,0.872,0.873,0.872,0.872,0.872,0.872,0.872,0.873,0.873,0.875,0.875,0.876,0.876,0.877,0.878,0.878,0.878,0.88,0.88,0.88,0.88,0.88,0.88,0.88,0.88,0.88,0.88,0.877,0.877,0.876,0.876,0.875,0.875,0.875,0.873,0.873,0.873,0.873,0.873,0.873,0.873,0.873,0.873,0.873,0.873,0.873,0.873,0.873,0.873,0.875,0.875,0.875,0.875,0.876,0.876,0.876,0.876,0.875,0.875,0.875,0.875,0.875,0.875,0.875,0.875,0.875,0.875,0.873,0.873,0.871,0.871,0.872,0.872,0.872,0.872,0.873,0.873,0.875,0.875,0.875,0.875,0.875,0.876,0.875,0.875,0.875,0.875,0.875,0.875,0.876,0.876,0.876,0.876,0.876,0.876,0.876,0.876,0.875,0.875,0.875,0.875,0.873,0.873,0.873,0.872,0.873,0.873,0.873,0.872,0.872,0.872,0.872,0.872,0.873,0.873,0.872,0.872,0.872,0.872,0.871,0.871,0.871,0.871,0.87,0.87,0.87,0.87,0.87,0.87,0.868,0.87,0.87,0.868,0.868,0.868,0.868,0.868,0.868,0.868,0.868,0.868,0.868,0.868,0.868,0.868,0.87,0.871,0.871,0.87,0.87,0.87,0.87,0.87,0.868,0.868,0.867,0.867,0.866,0.866,0.866,0.866,0.866,0.866,0.866,0.867,0.867,0.867,0.867,0.867,0.866,0.866,0.866,0.866,0.866,0.867,0.867,0.867,0.867,0.867,0.867,0.867,0.867,0.867,0.866,0.866,0.866,0.865,0.865,0.865,0.865,0.866,0.866,0.866,0.866,0.867,0.867,0.868,0.868,0.868,0.868,0.868,0.868,0.868,0.868,0.868,0.868,0.868,0.867,0.867,0.867,0.867,0.867,0.866,0.866,0.865,0.864,0.862,0.862,0.861,0.86,0,0,0,0,0,0,0,0,0,0,0,0,0,0,0,0,0,0,0,0,0,0,0,0,0,0,0,0,0,0,0,0,0,0,0,0,0,0,0.326,0.325,0.325,0.325,0.324,0.324,0.323,0.322,0.322,0.321,0.32,0.32,0.319,0.318,0.317,0.317,0.316,0.316,0.315,0.314,0.314,0.313,0.312,0.312,0.311,0.311,0.31,0.31,0.309,0.309,0.308,0.308,0.307,0.307,0.306,0.306,0.305,0.305,0.304,0.304,0.303,0.303,0.302,0.302,0.301,0.301,0.3,0.3,0.299,0.298,0.298,0.298,0.297,0.296,0.296,0.296,0.295,0.295,0.294,0.294,0.293,0.293,0.292,0.292,0.291,0.291,0.291,0.29,0.29,0.289,0.289,0.288,0.288,0.287,0.287,0.286,0.286,0.285,0.285,0.284,0.284,0.284,0.283,0.283,0.282,0.282,0.282,0.281,0.281,0.28,0.28,0.279,0.279,0.278,0.278,0.277,0.277,0.276,0.276,0.275,0.275,0.274,0.274,0.273,0.273,0.272,0.272,0.272,0.271,0.271,0.271,0.27,0.27,0.269,0.269,0.269,0.268,0.268,0.268,0.268,0.267,0.267,0,0,0,0
0.891,0.89,0.891,0.891,0.891,0.89,0.89,0.89,0.888,0.887,0.886,0.886,0.885,0.885,0.885,0.883,0.883,0.882,0.882,0.882,0.882,0.882,0.882,0.882,0.882,0.882,0.883,0.883,0.883,0.883,0.885,0.885,0.886,0.887,0.888,0.888,0.89,0.89,0.89,0.89,0.89,0.887,0.886,0.886,0.885,0.886,0.886,0.886,0.886,0.887,0.888,0.888,0.89,0.891,0.891,0.891,0.891,0.892,0.892,0.892,0.892,0.892,0.892,0.892,0.891,0.891,0.89,0.888,0.888,0.887,0.888,0.887,0.887,0.888,0.888,0.888,0.888,0.89,0.89,0.89,0.89,0.888,0.888,0.886,0.886,0.885,0.883,0.883,0.882,0.882,0.882,0.882,0.883,0.885,0.885,0.886,0.886,0.886,0.886,0.886,0.886,0.886,0.886,0.886,0.887,0.887,0.887,0.887,0.887,0.887,0.886,0.886,0.885,0.885,0.885,0.885,0.885,0.883,0.883,0.883,0.883,0.885,0.885,0.885,0.885,0.886,0.886,0.885,0.886,0.886,0.886,0.885,0.885,0.885,0.886,0.886,0.886,0.886,0.887,0.886,0.886,0.885,0.883,0.882,0.881,0.878,0.877,0.875,0.875,0.875,0.873,0.872,0.871,0.871,0.871,0.871,0.871,0.873,0.875,0.876,0.878,0.88,0.881,0.881,0.881,0.882,0.882,0.882,0.881,0.88,0.878,0.877,0.875,0.875,0.872,0.871,0.87,0.87,0.87,0.87,0.868,0.868,0.868,0.868,0.867,0.867,0.867,0.867,0.866,0.866,0.866,0.867,0.867,0.87,0.87,0.87,0.871,0.872,0.873,0.873,0.875,0.875,0.875,0.875,0.875,0.876,0.876,0.875,0.875,0.875,0.875,0.873,0.872,0.872,0.871,0.87,0.87,0.868,0.87,0.868,0.868,0.868,0.868,0.868,0.868,0.868,0.868,0.867,0.868,0.867,0.868,0.868,0.868,0.87,0.87,0.87,0.87,0.87,0.871,0.871,0.871,0.871,0.871,0.87,0.871,0.871,0.871,0.871,0.87,0.87,0.87,0.87,0.868,0.867,0.866,0.866,0.866,0.866,0.867,0.867,0.867,0.868,0.868,0.87,0.87,0.87,0.87,0.87,0.87,0.871,0.871,0.871,0.871,0.871,0.871,0.871,0.871,0.871,0.871,0.871,0.871,0.871,0.871,0.871,0.871,0.871,0.87,0.871,0.87,0.87,0.87,0.87,0.87,0.868,0.868,0.868,0.868,0.868,0.868,0.868,0.867,0.867,0.867,0.867,0.867,0.867,0.866,0.866,0.866,0.866,0.866,0.865,0.865,0.865,0.865,0.865,0.865,0.865,0.864,0.864,0.864,0.864,0.864,0.864,0.864,0.864,0.864,0.864,0.864,0.864,0.865,0.866,0.866,0.866,0.865,0.865,0.865,0.865,0.864,0.864,0.862,0.861,0.861,0.861,0.861,0.861,0.861,0.861,0.861,0.862,0.862,0.862,0.862,0.862,0.861,0.861,0.861,0.861,0.861,0.861,0.861,0.861,0.861,0.862,0.862,0.862,0.862,0.862,0.861,0.862,0.861,0.861,0.861,0.861,0.861,0.861,0.861,0.861,0.862,0.862,0.864,0.864,0.864,0.864,0.864,0.864,0.865,0.865,0.865,0.865,0.865,0.865,0.864,0.864,0.864,0.864,0.864,0.862,0.862,0.861,0.86,0.86,0.859,0.859,0.858,0,0,0,0,0,0,0,0,0,0,0,0,0,0,0,0,0,0,0,0,0,0,0,0,0,0,0,0,0,0,0,0,0,0,0,0,0,0,0.326,0.325,0.325,0.325,0.324,0.324,0.323,0.322,0.322,0.321,0.321,0.32,0.319,0.318,0.318,0.317,0.316,0.316,0.315,0.314,0.314,0.313,0.313,0.312,0.311,0.311,0.31,0.31,0.309,0.309,0.308,0.308,0.307,0.307,0.306,0.306,0.305,0.305,0.304,0.304,0.303,0.303,0.302,0.302,0.301,0.301,0.3,0.299,0.299,0.298,0.298,0.298,0.297,0.296,0.296,0.296,0.295,0.295,0.294,0.294,0.293,0.293,0.292,0.292,0.291,0.291,0.29,0.29,0.29,0.289,0.289,0.288,0.288,0.287,0.287,0.286,0.286,0.285,0.285,0.285,0.284,0.284,0.283,0.283,0.282,0.282,0.281,0.281,0.281,0.28,0.28,0.279,0.279,0.278,0.278,0.277,0.277,0.276,0.276,0.275,0.275,0.274,0.274,0.273,0.273,0.273,0.272,0.272,0.271,0.271,0.271,0.27,0.27,0.269,0.269,0.269,0.268,0.268,0,0,0.267,0.267,0,0,0,0
0.886,0.885,0.885,0.883,0.883,0.883,0.882,0.881,0.88,0.878,0.877,0.876,0.875,0.875,0.873,0.872,0.873,0.872,0.872,0.873,0.875,0.875,0.875,0.875,0.876,0.876,0.877,0.877,0.877,0.877,0.878,0.88,0.88,0.881,0.881,0.882,0.882,0.883,0.883,0.883,0.883,0.882,0.882,0.88,0.88,0.88,0.88,0.88,0.88,0.881,0.882,0.882,0.883,0.885,0.885,0.886,0.886,0.886,0.886,0.887,0.887,0.887,0.886,0.886,0.886,0.885,0.885,0.883,0.882,0.882,0.882,0.881,0.881,0.882,0.882,0.882,0.883,0.883,0.883,0.883,0.883,0.882,0.882,0.88,0.88,0.878,0.878,0.878,0.877,0.877,0.877,0.877,0.878,0.88,0.88,0.881,0.88,0.88,0.88,0.881,0.881,0.881,0.881,0.881,0.881,0.881,0.882,0.882,0.882,0.882,0.882,0.881,0.88,0.88,0.88,0.88,0.88,0.88,0.878,0.88,0.88,0.88,0.88,0.88,0.88,0.88,0.881,0.881,0.88,0.88,0.88,0.88,0.88,0.88,0.881,0.881,0.881,0.881,0.881,0.881,0.881,0.88,0.878,0.877,0.876,0.873,0.872,0.87,0.868,0.868,0.867,0.866,0.865,0.865,0.866,0.866,0.866,0.868,0.87,0.871,0.873,0.875,0.876,0.876,0.876,0.878,0.877,0.877,0.876,0.876,0.873,0.872,0.871,0.87,0.868,0.867,0.866,0.865,0.866,0.865,0.865,0.864,0.864,0.864,0.862,0.862,0.862,0.862,0.862,0.862,0.862,0.862,0.864,0.865,0.866,0.866,0.866,0.867,0.868,0.868,0.87,0.87,0.87,0.87,0.871,0.871,0.871,0.871,0.87,0.87,0.868,0.868,0.867,0.866,0.866,0.865,0.864,0.864,0.864,0.864,0.864,0.862,0.862,0.862,0.864,0.864,0.864,0.862,0.864,0.864,0.864,0.864,0.864,0.865,0.865,0.865,0.865,0.866,0.866,0.866,0.866,0.866,0.866,0.865,0.865,0.865,0.865,0.865,0.865,0.865,0.864,0.864,0.862,0.862,0.86,0.86,0.861,0.861,0.861,0.862,0.861,0.862,0.862,0.864,0.864,0.864,0.864,0.864,0.865,0.866,0.866,0.866,0.866,0.866,0.866,0.867,0.866,0.866,0.866,0.866,0.866,0.866,0.867,0.867,0.867,0.867,0.867,0.867,0.867,0.866,0.866,0.866,0.866,0.865,0.865,0.864,0.864,0.864,0.864,0.864,0.864,0.864,0.864,0.864,0.864,0.864,0.862,0.862,0.861,0.861,0.861,0.861,0.861,0.86,0.86,0.86,0.86,0.86,0.859,0.859,0.859,0.859,0.859,0.859,0.859,0.859,0.859,0.859,0.859,0.859,0.86,0.861,0.861,0.861,0.861,0.86,0.86,0.86,0.86,0.859,0.858,0.856,0.856,0.856,0.856,0.855,0.856,0.856,0.856,0.856,0.856,0.856,0.856,0.856,0.856,0.856,0.856,0.855,0.855,0.855,0.855,0.855,0.856,0.856,0.856,0.858,0.858,0.858,0.858,0.858,0.858,0.856,0.856,0.856,0.856,0.856,0.856,0.856,0.856,0.858,0.858,0.858,0.859,0.859,0.859,0.86,0.86,0.86,0.86,0.861,0.861,0.861,0.861,0.861,0.861,0.86,0.86,0.86,0.859,0.858,0.858,0.856,0.856,0.856,0.854,0,0,0,0,0,0,0,0,0,0,0,0,0,0,0,0,0,0,0,0,0,0,0,0,0,0,0,0,0,0,0,0,0,0,0,0,0,0,0,0.325,0.325,0.325,0.324,0.324,0.323,0.323,0.322,0.321,0.321,0.32,0.319,0.318,0.318,0.317,0.317,0.316,0.315,0.315,0.314,0.313,0.313,0.312,0.311,0.311,0.31,0.31,0.309,0.309,0.309,0.308,0.307,0.307,0.306,0.306,0.305,0.305,0.304,0.304,0.303,0.303,0.302,0.302,0.301,0.301,0.3,0.299,0.299,0.298,0.298,0.297,0.297,0.296,0.296,0.296,0.295,0.295,0.294,0.294,0.293,0.293,0.292,0.292,0.291,0.291,0.29,0.29,0.289,0.289,0.289,0.288,0.288,0.287,0.287,0.286,0.286,0.285,0.285,0.285,0.284,0.284,0.283,0.283,0.282,0.282,0.281,0.281,0.28,0.28,0.279,0.279,0.279,0.278,0.278,0.277,0.277,0.276,0.276,0.275,0.275,0.274,0.274,0.273,0.273,0.273,0.272,0.272,0.271,0.271,0.271,0.27,0.27,0.269,0.269,0.269,0.268,0.268,0,0,0,0,0,0,0,0
0.881,0.88,0.878,0.878,0.877,0.876,0.875,0.873,0.872,0.871,0.87,0.868,0.867,0.867,0.866,0.865,0.865,0.865,0.865,0.866,0.867,0.867,0.868,0.868,0.87,0.87,0.871,0.872,0.872,0.872,0.872,0.873,0.873,0.873,0.875,0.875,0.876,0.877,0.878,0.878,0.877,0.877,0.876,0.876,0.875,0.873,0.875,0.875,0.875,0.876,0.876,0.877,0.878,0.878,0.88,0.881,0.88,0.881,0.881,0.881,0.881,0.882,0.882,0.881,0.881,0.88,0.878,0.877,0.877,0.876,0.876,0.876,0.876,0.876,0.876,0.877,0.877,0.877,0.877,0.878,0.877,0.876,0.876,0.875,0.875,0.873,0.873,0.873,0.873,0.873,0.873,0.872,0.873,0.873,0.875,0.875,0.873,0.875,0.875,0.875,0.875,0.876,0.875,0.875,0.876,0.876,0.877,0.877,0.878,0.877,0.877,0.876,0.875,0.876,0.876,0.876,0.875,0.873,0.873,0.873,0.875,0.873,0.875,0.875,0.875,0.876,0.876,0.875,0.875,0.875,0.875,0.875,0.875,0.875,0.875,0.875,0.876,0.876,0.876,0.875,0.875,0.873,0.873,0.872,0.87,0.868,0.867,0.866,0.864,0.862,0.862,0.861,0.86,0.86,0.86,0.861,0.862,0.862,0.865,0.866,0.868,0.87,0.871,0.872,0.872,0.872,0.872,0.872,0.872,0.87,0.868,0.867,0.866,0.865,0.864,0.862,0.861,0.861,0.86,0.86,0.86,0.86,0.859,0.859,0.858,0.858,0.858,0.858,0.858,0.858,0.858,0.859,0.859,0.861,0.861,0.861,0.862,0.862,0.864,0.865,0.866,0.866,0.866,0.866,0.866,0.866,0.866,0.865,0.865,0.864,0.864,0.862,0.861,0.86,0.86,0.859,0.858,0.858,0.859,0.858,0.858,0.858,0.858,0.858,0.859,0.859,0.859,0.859,0.859,0.859,0.859,0.859,0.859,0.859,0.86,0.861,0.86,0.861,0.861,0.862,0.862,0.862,0.86,0.86,0.86,0.86,0.86,0.86,0.86,0.859,0.858,0.858,0.858,0.856,0.855,0.855,0.855,0.855,0.856,0.856,0.856,0.856,0.858,0.859,0.859,0.858,0.859,0.859,0.86,0.86,0.86,0.86,0.86,0.861,0.861,0.861,0.861,0.861,0.861,0.861,0.861,0.862,0.862,0.862,0.864,0.862,0.862,0.864,0.864,0.862,0.862,0.862,0.861,0.86,0.86,0.859,0.858,0.858,0.858,0.859,0.859,0.859,0.859,0.859,0.859,0.859,0.859,0.858,0.856,0.856,0.856,0.856,0.856,0.855,0.855,0.855,0.855,0.855,0.854,0.854,0.854,0.854,0.854,0.854,0.854,0.854,0.854,0.854,0.854,0.854,0.855,0.856,0.856,0.856,0.856,0.856,0.856,0.856,0.855,0.855,0.853,0.853,0.852,0.852,0.852,0.851,0.851,0.851,0.851,0.852,0.852,0.852,0.852,0.852,0.852,0.851,0.851,0.851,0.851,0.851,0.851,0.852,0.851,0.852,0.852,0.853,0.853,0.853,0.853,0.853,0.853,0.853,0.852,0.852,0.852,0.853,0.852,0.853,0.853,0.854,0.854,0.854,0.854,0.854,0.855,0.856,0.856,0.856,0.856,0.858,0.858,0.859,0.858,0.858,0.858,0.856,0.856,0.855,0.855,0.854,0.853,0.853,0.852,0.852,0.852,0,0,0,0,0,0,0,0,0,0,0,0,0,0,0,0,0,0,0,0,0,0,0,0,0,0,0,0,0,0,0,0,0,0,0,0,0,0,0.325,0.325,0.325,0.324,0.324,0.324,0.323,0.323,0.322,0.321,0.321,0.32,0.319,0.318,0.318,0.317,0.317,0.316,0.315,0.315,0.314,0.313,0.313,0.312,0.311,0.311,0.31,0.31,0.309,0.309,0.308,0.308,0.307,0.307,0.306,0.306,0.305,0.305,0.304,0.304,0.303,0.303,0.302,0.302,0.301,0.301,0.3,0.299,0.299,0.298,0.298,0.297,0.297,0.296,0.296,0.296,0.295,0.295,0.294,0.294,0.293,0.293,0.292,0.292,0.291,0.291,0.29,0.29,0.289,0.289,0.289,0.288,0.288,0.287,0.287,0.286,0.286,0.285,0.285,0.285,0.284,0.284,0.283,0.283,0.282,0.282,0.281,0.281,0.28,0.28,0.279,0.279,0.278,0.278,0.278,0.277,0.277,0.276,0.276,0.275,0.275,0.274,0.274,0.273,0.273,0.273,0.272,0.272,0.271,0.271,0.271,0.27,0.27,0.269,0.269,0.269,0.268,0.268,0.268,0,0,0,0,0,0,0
0.875,0.873,0.872,0.872,0.871,0.868,0.867,0.866,0.865,0.864,0.862,0.862,0.861,0.861,0.86,0.859,0.859,0.859,0.86,0.86,0.861,0.861,0.862,0.862,0.864,0.865,0.865,0.866,0.866,0.866,0.867,0.868,0.867,0.867,0.868,0.867,0.868,0.87,0.871,0.871,0.871,0.871,0.871,0.87,0.87,0.868,0.87,0.87,0.87,0.87,0.871,0.871,0.872,0.873,0.873,0.875,0.873,0.875,0.875,0.876,0.876,0.876,0.877,0.876,0.876,0.875,0.873,0.872,0.872,0.872,0.871,0.871,0.871,0.871,0.871,0.871,0.871,0.871,0.871,0.871,0.871,0.871,0.871,0.87,0.87,0.87,0.868,0.868,0.867,0.868,0.867,0.867,0.868,0.868,0.868,0.868,0.868,0.868,0.868,0.868,0.868,0.87,0.87,0.87,0.87,0.871,0.871,0.872,0.872,0.872,0.871,0.871,0.87,0.871,0.871,0.871,0.868,0.868,0.868,0.868,0.868,0.87,0.87,0.87,0.871,0.871,0.871,0.871,0.871,0.871,0.871,0.87,0.87,0.87,0.87,0.87,0.87,0.871,0.871,0.87,0.87,0.868,0.867,0.866,0.866,0.864,0.862,0.861,0.86,0.858,0.856,0.856,0.855,0.855,0.855,0.856,0.858,0.859,0.86,0.862,0.864,0.866,0.866,0.867,0.867,0.868,0.868,0.867,0.867,0.866,0.865,0.864,0.862,0.861,0.86,0.859,0.858,0.856,0.856,0.855,0.855,0.854,0.854,0.854,0.853,0.853,0.854,0.854,0.853,0.854,0.854,0.854,0.855,0.856,0.856,0.856,0.858,0.859,0.86,0.861,0.861,0.861,0.862,0.862,0.862,0.861,0.861,0.86,0.859,0.859,0.858,0.858,0.856,0.854,0.854,0.853,0.853,0.853,0.853,0.853,0.853,0.853,0.853,0.854,0.854,0.854,0.854,0.854,0.854,0.855,0.855,0.855,0.855,0.855,0.855,0.856,0.856,0.856,0.858,0.858,0.858,0.858,0.856,0.856,0.855,0.855,0.855,0.855,0.854,0.853,0.853,0.853,0.852,0.852,0.851,0.851,0.851,0.851,0.851,0.852,0.852,0.852,0.853,0.853,0.853,0.853,0.854,0.854,0.854,0.855,0.855,0.855,0.856,0.856,0.856,0.856,0.856,0.856,0.856,0.856,0.858,0.858,0.859,0.859,0.86,0.86,0.86,0.861,0.861,0.86,0.859,0.858,0.856,0.855,0.854,0.854,0.853,0.853,0.853,0.853,0.853,0.853,0.853,0.853,0.853,0.853,0.853,0.853,0.852,0.852,0.852,0.852,0.852,0.851,0.851,0.852,0.851,0.851,0.851,0.849,0.849,0.849,0.849,0.848,0.849,0.849,0.849,0.849,0.849,0.851,0.852,0.852,0.852,0.853,0.853,0.853,0.853,0.852,0.852,0.851,0.849,0.849,0.848,0.848,0.847,0.847,0.847,0.847,0.847,0.847,0.847,0.847,0.847,0.847,0.847,0.847,0.847,0.846,0.846,0.847,0.847,0.847,0.847,0.847,0.847,0.847,0.848,0.848,0.848,0.849,0.849,0.848,0.848,0.848,0.848,0.848,0.848,0.849,0.849,0.849,0.851,0.851,0.851,0.851,0.852,0.852,0.853,0.853,0.853,0.853,0.853,0.854,0.853,0.853,0.853,0.853,0.852,0.852,0.851,0.849,0.849,0.849,0.848,0.848,0.847,0,0,0,0,0,0,0,0,0,0,0,0,0,0,0,0,0,0,0,0,0,0,0,0,0,0,0,0,0,0,0,0,0,0,0,0,0,0,0.325,0.325,0.325,0.324,0.324,0.323,0.323,0.323,0.322,0.321,0.321,0,0,0.318,0.318,0.317,0.317,0.316,0.315,0.315,0.314,0.313,0.313,0.312,0.311,0.311,0.31,0.31,0.309,0.309,0.309,0.308,0.307,0.307,0.306,0.306,0.305,0.305,0.304,0.304,0.303,0.303,0.302,0.302,0.301,0.301,0.3,0.299,0.299,0.298,0.298,0.297,0.297,0.296,0.296,0.296,0.295,0.295,0.294,0.294,0.293,0.293,0.292,0.292,0.291,0.291,0.29,0.29,0.289,0.289,0.288,0.288,0.288,0.287,0.287,0.286,0.286,0.285,0.285,0.285,0.284,0.284,0.283,0.283,0.282,0.282,0.281,0.281,0.28,0.28,0.279,0.279,0.278,0.278,0.278,0.277,0.276,0.276,0.276,0.275,0.275,0.274,0.274,0.273,0.273,0.273,0.272,0.272,0.271,0.271,0.271,0.27,0.27,0.269,0.269,0.269,0.268,0.268,0.268,0.268,0,0,0,0,0,0
0.87,0.868,0.867,0.866,0.865,0.864,0.862,0.861,0.86,0.859,0.858,0.856,0.855,0.855,0.854,0.853,0.854,0.854,0.854,0.854,0.855,0.855,0.856,0.856,0.859,0.859,0.86,0.861,0.861,0.861,0.862,0.862,0.862,0.862,0.862,0.864,0.864,0.865,0.865,0.865,0.866,0.865,0.865,0.865,0.865,0.864,0.864,0.864,0.865,0.865,0.865,0.865,0.866,0.867,0.867,0.868,0.867,0.868,0.87,0.87,0.871,0.871,0.871,0.872,0.872,0.871,0.87,0.868,0.868,0.867,0.867,0.866,0.866,0.866,0.866,0.866,0.866,0.866,0.865,0.865,0.865,0.865,0.865,0.865,0.865,0.865,0.865,0.864,0.864,0.865,0.864,0.864,0.864,0.864,0.864,0.864,0.864,0.864,0.864,0.864,0.864,0.865,0.865,0.865,0.865,0.865,0.866,0.866,0.866,0.866,0.865,0.865,0.865,0.866,0.866,0.865,0.864,0.864,0.864,0.864,0.865,0.865,0.865,0.866,0.866,0.866,0.867,0.867,0.867,0.867,0.867,0.866,0.866,0.866,0.865,0.866,0.866,0.867,0.866,0.865,0.865,0.864,0.862,0.862,0.861,0.859,0.858,0.856,0.855,0.854,0.853,0.852,0.851,0.851,0.852,0.852,0.853,0.854,0.855,0.856,0.859,0.86,0.861,0.861,0.862,0.862,0.862,0.862,0.861,0.86,0.86,0.859,0.858,0.858,0.855,0.854,0.853,0.853,0.852,0.852,0.851,0.851,0.851,0.849,0.849,0.849,0.849,0.849,0.849,0.851,0.851,0.851,0.852,0.852,0.853,0.853,0.853,0.854,0.855,0.856,0.856,0.858,0.858,0.858,0.858,0.856,0.856,0.856,0.855,0.854,0.853,0.852,0.852,0.851,0.849,0.849,0.849,0.848,0.848,0.848,0.848,0.848,0.849,0.849,0.849,0.849,0.849,0.849,0.851,0.851,0.851,0.851,0.851,0.851,0.852,0.853,0.852,0.853,0.853,0.854,0.854,0.853,0.853,0.852,0.851,0.851,0.851,0.851,0.849,0.848,0.848,0.848,0.848,0.847,0.846,0.846,0.846,0.846,0.846,0.846,0.847,0.847,0.847,0.848,0.848,0.848,0.849,0.849,0.849,0.849,0.851,0.851,0.851,0.851,0.852,0.852,0.852,0.852,0.852,0.853,0.853,0.854,0.854,0.855,0.855,0.855,0.855,0.856,0.855,0.855,0.854,0.853,0.851,0.851,0.849,0.848,0.847,0.847,0.847,0.847,0.848,0.848,0.848,0.848,0.848,0.848,0.848,0.847,0.847,0.847,0.846,0.846,0.847,0.846,0.846,0.847,0.846,0.846,0.846,0.846,0.845,0.845,0.845,0.845,0.844,0.845,0.845,0.845,0.845,0.846,0.846,0.847,0.848,0.848,0.848,0.848,0.848,0.848,0.847,0.847,0.846,0.845,0.845,0.844,0.844,0.842,0.842,0.842,0.842,0.842,0.842,0.842,0.842,0.842,0.842,0.842,0.842,0.842,0.841,0.842,0.842,0.842,0.842,0.842,0.842,0.844,0.844,0.844,0.844,0.845,0.845,0.845,0.844,0.844,0.845,0.845,0.845,0.845,0.845,0.846,0.846,0.846,0.846,0.847,0.847,0.848,0.848,0.848,0.848,0.849,0.849,0.849,0.849,0.848,0.848,0.848,0.847,0.847,0.846,0.846,0.845,0.845,0.845,0,0,0,0,0,0,0,0,0,0,0,0,0,0,0,0,0,0,0,0,0,0,0,0,0,0,0,0,0,0,0,0,0,0,0,0,0,0,0.325,0.325,0.325,0.325,0.325,0.324,0.324,0.323,0.323,0.323,0.322,0.321,0.321,0,0,0.319,0.318,0.317,0.317,0.316,0.316,0.315,0.314,0.313,0.313,0.312,0.311,0.311,0.31,0.31,0.309,0.309,0.309,0.308,0.307,0.307,0.306,0.306,0.305,0.305,0.304,0.304,0.303,0.303,0.302,0.302,0.301,0.301,0.3,0.299,0.299,0.298,0.298,0.297,0.297,0.296,0.296,0.296,0.295,0.295,0.295,0.294,0.293,0.293,0.292,0.292,0.291,0.291,0.29,0.29,0.289,0.289,0.288,0.288,0.287,0.287,0.287,0.286,0.286,0.285,0.285,0.284,0.284,0.284,0.283,0.283,0.282,0.282,0.281,0.281,0.28,0.28,0.279,0.279,0.278,0.278,0.277,0.277,0.276,0.276,0.276,0.275,0.275,0.274,0.274,0.274,0.273,0.273,0.272,0.272,0.271,0.271,0.271,0.27,0.27,0.269,0.269,0.269,0.268,0.268,0.268,0.268,0.268,0.267,0,0,0,0
0.864,0.861,0.861,0.86,0.859,0.858,0.856,0.856,0.854,0.853,0.852,0.851,0.849,0.849,0.848,0.848,0.848,0.848,0.848,0.848,0.849,0.849,0.851,0.852,0.853,0.854,0.855,0.855,0.856,0.858,0.858,0.859,0.858,0.859,0.859,0.859,0.86,0.86,0.861,0.861,0.86,0.86,0.86,0.86,0.86,0.86,0.86,0.859,0.86,0.86,0.859,0.86,0.86,0.86,0.861,0.862,0.861,0.864,0.864,0.865,0.866,0.866,0.866,0.867,0.866,0.866,0.865,0.864,0.862,0.862,0.862,0.861,0.861,0.86,0.86,0.86,0.86,0.859,0.859,0.859,0.858,0.859,0.859,0.86,0.86,0.86,0.86,0.86,0.859,0.86,0.86,0.859,0.859,0.859,0.859,0.859,0.859,0.859,0.859,0.859,0.86,0.86,0.86,0.86,0.86,0.86,0.861,0.861,0.86,0.86,0.86,0.86,0.859,0.86,0.86,0.86,0.859,0.859,0.859,0.859,0.86,0.86,0.86,0.861,0.861,0.862,0.862,0.862,0.862,0.862,0.862,0.862,0.862,0.861,0.861,0.861,0.861,0.861,0.861,0.861,0.861,0.859,0.859,0.858,0.856,0.854,0.853,0.851,0.851,0.849,0.849,0.848,0.847,0.847,0.848,0.848,0.848,0.851,0.852,0.852,0.854,0.855,0.855,0.855,0.856,0.856,0.856,0.855,0.855,0.854,0.853,0.852,0.852,0.852,0.851,0.849,0.849,0.849,0.848,0.848,0.848,0.847,0.847,0.846,0.846,0.846,0.846,0.846,0.846,0.847,0.847,0.847,0.847,0.848,0.848,0.849,0.849,0.851,0.852,0.853,0.853,0.853,0.853,0.853,0.853,0.852,0.851,0.851,0.851,0.849,0.849,0.848,0.847,0.846,0.846,0.845,0.845,0.845,0.844,0.844,0.844,0.844,0.845,0.846,0.846,0.846,0.846,0.846,0.846,0.846,0.846,0.846,0.846,0.846,0.847,0.847,0.847,0.848,0.849,0.849,0.849,0.849,0.848,0.848,0.847,0.846,0.846,0.846,0.845,0.845,0.844,0.844,0.844,0.844,0.842,0.842,0.841,0.842,0.842,0.842,0.842,0.842,0.842,0.844,0.844,0.845,0.845,0.845,0.845,0.845,0.845,0.846,0.846,0.846,0.847,0.847,0.847,0.846,0.846,0.847,0.848,0.848,0.849,0.849,0.849,0.851,0.849,0.851,0.849,0.849,0.848,0.847,0.846,0.845,0.844,0.844,0.842,0.841,0.841,0.842,0.842,0.842,0.842,0.842,0.842,0.842,0.842,0.842,0.842,0.841,0.841,0.841,0.842,0.842,0.842,0.841,0.841,0.841,0.841,0.842,0.841,0.841,0.841,0.84,0.84,0.841,0.841,0.841,0.842,0.842,0.842,0.842,0.844,0.844,0.845,0.845,0.845,0.844,0.844,0.842,0.841,0.841,0.84,0.839,0.839,0.839,0.839,0.838,0.838,0.838,0.838,0.838,0.838,0.838,0.838,0.838,0.838,0.838,0.838,0.837,0.837,0.838,0.838,0.839,0.839,0.839,0.839,0.839,0.84,0.84,0.84,0.84,0.84,0.84,0.84,0.84,0.84,0.841,0.841,0.842,0.842,0.842,0.842,0.842,0.844,0.844,0.845,0.845,0.845,0.845,0.845,0.845,0.845,0.844,0.844,0.842,0.841,0.841,0.84,0.84,0.84,0.84,0.84,0.84,0,0,0,0,0,0,0,0,0,0,0,0,0,0,0,0,0,0,0,0,0,0,0,0,0,0,0,0,0,0,0,0,0,0,0,0,0,0.325,0.325,0.325,0.325,0.325,0.324,0.324,0.324,0.323,0.323,0.322,0.322,0.321,0,0,0.319,0.318,0.317,0.317,0.316,0.316,0.315,0.314,0.313,0.313,0.312,0.311,0.311,0.31,0.31,0.309,0.309,0.309,0.308,0.307,0.307,0.306,0.306,0.305,0.305,0.304,0.304,0.303,0.303,0.302,0.302,0.301,0.3,0.3,0.299,0.299,0.298,0.298,0.297,0.297,0.296,0.296,0.296,0.296,0.295,0.295,0.294,0.294,0.293,0.293,0.292,0.292,0.291,0.29,0.29,0.289,0.289,0.288,0.288,0.287,0.287,0.287,0.286,0.286,0.285,0.285,0.284,0.284,0.284,0.283,0.282,0.282,0.282,0.281,0.281,0.28,0.28,0.279,0.279,0.278,0.278,0.278,0.277,0.276,0.276,0.276,0.275,0.275,0.274,0.274,0.274,0.273,0.273,0.272,0.272,0.271,0.271,0.271,0.27,0.27,0.269,0.269,0.269,0.269,0.268,0.268,0.268,0.267,0.267,0.267,0,0,0
0.858,0.856,0.855,0.855,0.853,0.853,0.852,0.851,0.849,0.848,0.847,0.846,0.845,0.844,0.844,0.842,0.842,0.842,0.842,0.844,0.845,0.845,0.845,0.847,0.848,0.849,0.852,0.852,0.853,0.854,0.854,0.854,0.854,0.855,0.855,0.855,0.856,0.856,0.856,0.856,0.856,0.855,0.855,0.855,0.855,0.855,0.855,0.854,0.854,0.854,0.854,0.854,0.854,0.855,0.855,0.856,0.856,0.858,0.859,0.859,0.86,0.86,0.861,0.861,0.861,0.86,0.86,0.859,0.858,0.858,0.856,0.856,0.855,0.855,0.855,0.855,0.855,0.855,0.854,0.854,0.854,0.854,0.854,0.855,0.855,0.855,0.856,0.855,0.855,0.856,0.856,0.855,0.855,0.855,0.855,0.854,0.854,0.854,0.854,0.855,0.855,0.855,0.855,0.855,0.855,0.855,0.855,0.855,0.855,0.854,0.854,0.853,0.854,0.854,0.854,0.855,0.854,0.854,0.854,0.854,0.855,0.855,0.855,0.856,0.856,0.858,0.859,0.858,0.859,0.859,0.859,0.858,0.858,0.858,0.858,0.858,0.858,0.858,0.858,0.856,0.856,0.854,0.854,0.853,0.852,0.851,0.848,0.847,0.847,0.846,0.846,0.844,0.844,0.844,0.844,0.845,0.846,0.846,0.847,0.847,0.848,0.849,0.851,0.849,0.851,0.851,0.849,0.849,0.849,0.848,0.848,0.848,0.847,0.847,0.847,0.847,0.846,0.846,0.846,0.846,0.846,0.845,0.845,0.844,0.844,0.844,0.844,0.844,0.844,0.844,0.844,0.844,0.844,0.845,0.846,0.846,0.847,0.848,0.849,0.849,0.849,0.849,0.849,0.848,0.848,0.847,0.846,0.847,0.846,0.845,0.844,0.842,0.842,0.841,0.841,0.841,0.84,0.84,0.84,0.84,0.84,0.84,0.841,0.841,0.841,0.841,0.841,0.841,0.841,0.841,0.842,0.841,0.841,0.841,0.842,0.842,0.842,0.844,0.844,0.845,0.845,0.845,0.844,0.844,0.842,0.842,0.842,0.841,0.841,0.84,0.84,0.839,0.839,0.84,0.838,0.838,0.838,0.838,0.839,0.839,0.839,0.839,0.84,0.84,0.84,0.84,0.84,0.84,0.84,0.84,0.84,0.84,0.84,0.841,0.841,0.841,0.841,0.841,0.841,0.842,0.842,0.844,0.844,0.844,0.845,0.845,0.845,0.845,0.845,0.844,0.842,0.842,0.84,0.84,0.839,0.839,0.838,0.838,0.837,0.837,0.838,0.838,0.838,0.838,0.838,0.838,0.838,0.838,0.838,0.838,0.838,0.838,0.838,0.838,0.838,0.838,0.838,0.838,0.838,0.838,0.838,0.838,0.837,0.837,0.837,0.837,0.838,0.838,0.838,0.839,0.839,0.84,0.84,0.84,0.84,0.84,0.839,0.839,0.839,0.839,0.837,0.836,0.836,0.835,0.835,0.835,0.833,0.833,0.833,0.833,0.833,0.833,0.833,0.833,0.833,0.833,0.833,0.833,0.833,0.833,0.833,0.833,0.835,0.835,0.835,0.835,0.835,0.836,0.836,0.836,0.836,0.836,0.836,0.837,0.837,0.837,0.837,0.838,0.838,0.839,0.839,0.839,0.838,0.839,0.839,0.84,0.84,0.84,0.84,0.84,0.84,0.84,0.84,0.839,0.839,0.838,0.837,0.837,0.835,0.836,0.836,0.835,0.835,0.835,0,0,0,0,0,0,0,0,0,0,0,0,0,0,0,0,0,0,0,0,0,0,0,0,0,0,0,0,0,0,0,0,0,0,0,0,0,0.325,0.325,0.325,0.325,0.325,0.324,0.324,0.324,0.323,0.323,0.322,0.322,0.321,0.32,0.319,0.319,0.318,0.317,0.317,0.316,0.316,0.315,0.314,0.313,0.313,0.312,0.311,0.311,0.31,0.31,0.309,0.309,0.309,0.308,0.307,0.307,0.306,0.306,0.305,0.305,0.304,0.304,0.303,0.303,0.302,0.301,0.301,0.3,0.3,0.299,0.299,0.298,0.298,0.297,0.297,0.296,0.296,0.296,0.296,0.295,0.295,0.294,0.294,0.293,0.293,0.292,0.292,0.291,0.291,0.29,0.289,0.289,0.288,0.288,0.287,0.287,0.287,0.286,0.285,0.285,0.285,0.284,0.284,0.283,0.283,0.282,0.282,0.282,0.281,0.281,0.28,0.28,0.279,0.279,0.279,0.278,0.277,0.277,0.276,0.276,0.276,0.275,0.275,0.274,0.274,0.274,0.273,0.273,0.272,0.272,0.272,0.271,0.271,0.27,0.27,0.27,0.269,0.269,0.269,0.268,0.268,0.268,0.267,0.267,0.267,0.267,0,0
0.852,0.851,0.851,0.849,0.848,0.847,0.847,0.846,0.845,0.844,0.842,0.841,0.84,0.839,0.839,0.838,0.839,0.838,0.839,0.839,0.84,0.84,0.842,0.844,0.845,0.846,0.847,0.848,0.849,0.849,0.851,0.852,0.852,0.851,0.851,0.852,0.852,0.852,0.852,0.852,0.852,0.851,0.851,0.851,0.851,0.849,0.849,0.849,0.849,0.849,0.849,0.849,0.849,0.849,0.849,0.851,0.851,0.852,0.852,0.853,0.853,0.854,0.855,0.855,0.855,0.854,0.854,0.853,0.853,0.853,0.852,0.852,0.851,0.851,0.851,0.851,0.851,0.851,0.849,0.851,0.849,0.851,0.851,0.851,0.851,0.851,0.851,0.851,0.851,0.851,0.852,0.851,0.851,0.851,0.851,0.851,0.851,0.851,0.851,0.851,0.851,0.849,0.849,0.849,0.849,0.849,0.849,0.849,0.848,0.848,0.848,0.848,0.848,0.848,0.849,0.849,0.849,0.849,0.849,0.849,0.849,0.851,0.851,0.851,0.852,0.852,0.853,0.853,0.853,0.854,0.853,0.853,0.853,0.853,0.853,0.852,0.853,0.853,0.853,0.853,0.852,0.849,0.848,0.848,0.847,0.846,0.845,0.844,0.842,0.842,0.842,0.841,0.841,0.841,0.841,0.841,0.841,0.842,0.842,0.844,0.844,0.845,0.845,0.845,0.845,0.845,0.845,0.845,0.845,0.844,0.844,0.844,0.844,0.844,0.844,0.844,0.844,0.844,0.844,0.842,0.842,0.842,0.842,0.841,0.84,0.84,0.84,0.84,0.84,0.839,0.84,0.84,0.84,0.841,0.842,0.842,0.844,0.845,0.845,0.846,0.845,0.845,0.845,0.845,0.844,0.844,0.842,0.842,0.841,0.84,0.84,0.839,0.838,0.838,0.838,0.837,0.837,0.837,0.837,0.837,0.837,0.836,0.837,0.838,0.838,0.838,0.837,0.837,0.837,0.837,0.837,0.837,0.837,0.838,0.838,0.838,0.839,0.839,0.839,0.839,0.839,0.839,0.839,0.839,0.838,0.838,0.838,0.838,0.837,0.836,0.836,0.835,0.835,0.836,0.835,0.835,0.835,0.836,0.836,0.836,0.836,0.836,0.836,0.836,0.836,0.836,0.836,0.836,0.835,0.835,0.835,0.835,0.835,0.836,0.836,0.836,0.836,0.836,0.837,0.837,0.838,0.839,0.839,0.839,0.839,0.84,0.84,0.84,0.84,0.839,0.838,0.837,0.836,0.836,0.835,0.833,0.832,0.832,0.832,0.832,0.832,0.833,0.833,0.833,0.833,0.833,0.833,0.833,0.833,0.833,0.833,0.833,0.833,0.833,0.833,0.833,0.833,0.833,0.835,0.835,0.835,0.833,0.833,0.832,0.832,0.832,0.833,0.833,0.835,0.835,0.835,0.836,0.836,0.836,0.836,0.835,0.835,0.835,0.833,0.833,0.832,0.832,0.831,0.831,0.83,0.83,0.83,0.83,0.83,0.83,0.83,0.83,0.829,0.829,0.829,0.829,0.829,0.829,0.829,0.829,0.829,0.83,0.83,0.83,0.83,0.83,0.831,0.831,0.831,0.831,0.831,0.831,0.832,0.832,0.832,0.832,0.832,0.833,0.833,0.835,0.835,0.835,0.835,0.835,0.836,0.836,0.836,0.837,0.836,0.836,0.836,0.836,0.836,0.835,0.833,0.833,0.832,0.831,0.831,0.83,0.83,0.829,0.829,0,0,0,0,0,0,0,0,0,0,0,0,0,0,0,0,0,0,0,0,0,0,0,0,0,0,0,0,0,0,0,0,0,0,0,0,0,0.326,0.326,0.325,0.325,0.325,0.325,0.324,0.324,0.324,0.323,0.323,0.322,0.322,0.321,0.32,0.319,0.319,0.318,0.317,0.317,0.316,0.315,0.315,0.314,0.314,0.313,0.312,0.312,0.311,0.311,0.31,0.31,0.309,0.309,0.308,0.307,0.307,0.306,0.306,0.305,0.305,0.304,0.304,0.303,0.302,0.302,0.301,0.301,0.3,0.3,0.299,0.299,0.298,0.298,0.297,0.297,0.296,0.296,0.296,0.295,0.295,0.295,0.294,0.294,0.293,0.292,0.292,0.292,0.291,0.291,0.29,0.289,0.289,0.289,0.288,0.287,0.287,0.286,0.286,0.285,0.285,0.284,0.284,0.284,0.283,0.283,0.282,0.282,0.282,0.281,0.281,0.28,0.28,0.279,0.279,0.279,0.278,0.278,0.277,0.277,0.276,0.276,0.275,0.275,0.274,0.274,0.274,0.273,0.273,0.272,0.272,0.272,0.271,0.271,0.271,0.27,0.27,0.269,0.269,0.268,0.268,0.268,0.267,0.267,0.267,0.267,0.267,0.267,0
