2.03,2.037,2.044,2.05,2.064,2.078,2.099,2.121,2.135,2.158,2.18,2.196,2.219,2.244,2.252,2.268,2.276,2.293,2.302,2.31,2.319,2.328,2.337,2.337,2.354,2.363,2.372,2.391,2.4,2.409,2.428,2.447,2.467,0,2.507,2.527,2.548,2.569,2.58,2.613,2.624,2.646,2.669,2.681,2.692,2.716,2.74,2.764,2.777,2.789,2.802,2.815,2.84,2.867,2.88,2.893,2.907,2.935,2.949,2.977,2.991,3.006,3.035,3.05,3.081,3.096,3.127,3.143,3.159,3.175,3.192,3.208,3.225,3.259,3.276,3.311,3.329,3.365,3.384,3.402,3.421,3.44,3.44,3.459,3.479,3.498,3.538,3.579,3.621,3.664,3.708,3.776,3.822,3.87,3.919,3.969,4.047,4.101,4.156,4.212,4.27,4.33,4.361,4.392,4.423,4.455,4.455,4.487,4.52,4.553,4.587,4.621,4.656,4.691,4.691,4.727,4.763,4.763,4.838,4.876,4.914,4.954,4.994,5.034,5.075,5.075,5.117,5.117,5.117,5.117,5.117,5.075,5.075,5.034,5.034,4.994,4.994,4.954,4.954,4.914,4.914,4.914,4.914,4.914,4.914,4.914,4.914,4.914,4.954,4.954,4.954,4.954,4.914,4.914,4.914,4.914,4.914,4.914,4.876,4.838,4.838,4.838,4.838,4.8,4.8,4.8,4.8,4.838,4.876,4.876,4.914,4.914,4.914,4.954,4.954,4.954,4.994,4.994,4.954,4.954,4.994,4.994,4.994,4.954,4.954,4.954,4.954,4.914,4.914,4.876,4.876,4.876,4.838,4.838,4.8,4.8,4.8,4.8,4.8,4.8,4.838,4.838,4.876,4.876,4.876,4.876,4.914,4.954,4.954,4.994,4.994,5.034,5.034,5.034,5.034,5.034,5.034,5.034,4.994,4.994,4.954,4.914,4.876,4.838,4.763,4.727,4.727,4.691,4.691,4.727,4.727,4.763,4.8,4.838,4.838,4.876,4.876,4.914,4.954,4.954,4.994,5.034,5.034,5.075,5.075,5.117,5.16,5.16,5.16,5.16,5.203,5.203,5.248,5.248,5.248,5.203,5.16,5.16,5.117,5.075,5.075,5.034,4.914,4.876,4.8,4.763,4.691,4.656,4.587,4.553,4.487,4.487,4.455,4.423,4.392,4.361,4.33,4.27,4.212,4.128,4.047,3.969,3.894,3.846,3.776,3.73,3.686,3.686,3.664,3.664,3.664,3.664,3.642,3.642,3.642,3.621,3.621,3.6,3.6,3.579,3.579,3.559,3.538,3.538,3.518,3.498,3.459,3.402,3.329,3.242,3.192,3.143,3.081,3.021,2.977,2.935,2.921,2.893,2.893,2.88,2.867,2.853,2.853,2.827,2.815,2.789,2.764,2.74,2.704,2.669,2.646,2.624,2.591,2.58,2.569,2.548,2.548,2.538,2.527,2.507,2.497,2.487,2.467,2.457,2.438,2.419,2.4,2.372,2.354,2.337,2.319,2.302,2.285,2.26,2.244,2.235,2.227,2.211,2.196,2.188,2.173,2.158,2.15,2.143,2.128,2.113,2.106,2.092,2.078,2.071,2.057,2.044,2.03,2.017,2.004,1.991,1.972,1.96,1.947,1.935,1.923,1.911,1.905,1.894,1.888,1.882,1.871,1.865,1.859,1.854,1.848,1.837,1.832,1.821,1.816,1.805,1.795,1.784,1.774,1.759,1.749,1.739,1.73,1.72,1.711,1.701,1.696,1.692,1.687,1.678,1.674,1.669,1.66,1.656,1.647,1.634,1.625,1.613,1.604,1.6,1.592,1.584,1.576,1.568,1.564,1.56,1.556,1.548,1.544,1.536,1.533,1.525,1.521,1.51,1.503,1.496,1.485,1.478,1.467,1.46,1.454,1.45,1.443,1.44,1.44,1.437,1.433,1.43,1.423,1.42,1.414,1.407,1.401,1.391,1.385,1.379,1.37,1.367,1.361,1.358,1.352,1.346,1.343,1.337,1.329,1.323,1.315,1.309,1.301,1.295,1.287,1.282,1.277,1.274,1.271,1.269,1.264,1.261,1.259,1.256,1.253,1.253,1.253,1.251,1.248,1.248,1.248,1.246,1.246,1.243,1.241,1.238,1.233,1.231,1.224,1.219,1.214,1.207,1.202,1.195,1.191,1.186,1.182,1.177,1.173,1.171,1.166,1.164,1.16,1.155,1.153,1.147,1.142,1.138,1.132,1.128,1.124,1.12,1.118,1.116,1.114,1.112,1.11,1.108
2.03,2.037,2.044,2.05,2.064,2.078,2.092,2.113,2.128,2.15,2.173,2.196,2.211,2.227,2.244,2.26,2.276,2.285,2.302,2.31,2.319,2.328,2.337,2.345,2.354,2.372,2.382,2.4,2.409,2.428,2.438,2.467,2.487,2.507,2.527,2.538,2.559,2.58,2.591,2.613,2.624,2.646,2.658,2.681,2.692,2.716,2.74,2.752,2.764,2.777,2.802,2.815,2.84,2.853,2.88,2.893,2.907,2.921,2.949,2.963,2.991,3.006,3.035,3.065,3.081,3.096,3.127,3.143,3.175,3.192,3.208,3.225,3.242,3.276,3.311,3.311,3.347,3.365,3.384,3.402,3.421,3.44,3.459,3.459,3.479,3.518,3.538,3.579,3.6,3.621,3.664,3.708,3.776,3.822,3.87,3.944,3.995,4.074,4.128,4.184,4.241,4.3,4.33,4.361,4.392,4.392,4.423,4.455,4.487,4.52,4.553,4.587,4.656,4.691,4.727,4.763,4.8,4.838,4.876,4.954,4.994,5.034,5.075,5.117,5.16,5.16,5.16,5.16,5.16,5.16,5.16,5.117,5.075,5.075,5.034,4.994,4.994,4.954,4.954,4.954,4.914,4.914,4.914,4.954,4.954,4.954,4.954,4.954,4.954,4.994,4.954,4.954,4.994,4.954,4.954,4.954,4.954,4.954,4.914,4.914,4.876,4.876,4.876,4.876,4.876,4.876,4.914,4.914,4.914,4.954,4.994,4.994,4.994,5.034,5.034,5.034,5.034,5.034,5.034,5.034,5.034,5.034,5.034,5.034,5.034,4.994,4.994,4.954,4.914,4.914,4.914,4.876,4.876,4.838,4.838,4.838,4.8,4.8,4.8,4.838,4.8,4.8,4.838,4.838,4.876,4.914,4.914,4.954,4.994,4.994,5.034,5.034,5.034,5.075,5.075,5.075,5.075,5.034,5.034,5.034,5.034,4.994,4.914,4.876,4.838,4.8,4.763,4.763,4.727,4.727,4.763,4.8,4.8,4.876,4.914,4.914,4.914,4.954,4.954,4.954,4.994,5.034,5.034,5.075,5.075,5.117,5.117,5.117,5.16,5.16,5.16,5.203,5.203,5.203,5.203,5.203,5.16,5.16,5.117,5.075,5.075,4.994,4.914,4.876,4.8,4.763,4.691,4.656,4.587,4.553,4.487,4.487,4.487,4.455,4.423,4.423,4.392,4.3,4.241,4.156,4.074,3.995,3.919,3.87,3.799,3.73,3.708,3.708,3.708,3.686,3.686,3.686,3.664,3.664,3.664,3.642,3.642,3.621,3.621,3.6,3.579,3.559,3.538,3.518,3.498,3.498,3.44,3.402,3.347,3.276,3.208,3.159,3.096,3.05,2.991,2.963,2.935,2.907,2.907,2.893,2.88,2.88,2.867,2.853,2.84,2.815,2.789,2.764,2.728,2.692,2.658,2.635,2.602,2.591,2.569,2.559,2.538,2.527,2.517,2.507,2.487,2.477,2.457,2.447,2.428,2.409,2.391,2.363,2.345,2.328,2.31,2.293,2.276,2.26,2.244,2.235,2.227,2.211,2.204,2.188,2.18,2.165,2.158,2.143,2.128,2.121,2.106,2.099,2.085,2.064,2.057,2.044,2.024,2.01,1.997,1.985,1.972,1.96,1.947,1.935,1.923,1.911,1.905,1.894,1.894,1.882,1.871,1.865,1.859,1.854,1.848,1.843,1.832,1.821,1.816,1.805,1.795,1.784,1.774,1.764,1.754,1.744,1.73,1.72,1.711,1.706,1.696,1.692,1.687,1.683,1.674,1.669,1.66,1.656,1.647,1.634,1.625,1.613,1.604,1.6,1.592,1.58,1.572,1.568,1.564,1.56,1.556,1.548,1.544,1.536,1.533,1.525,1.521,1.51,1.503,1.496,1.485,1.478,1.467,1.46,1.454,1.45,1.443,1.44,1.44,1.437,1.433,1.43,1.423,1.42,1.414,1.407,1.401,1.391,1.385,1.379,1.376,1.37,1.364,1.361,1.355,1.349,1.343,1.34,1.332,1.323,1.315,1.309,1.301,1.295,1.287,1.282,1.279,1.274,1.271,1.269,1.266,1.264,1.261,1.259,1.259,1.256,1.253,1.253,1.251,1.251,1.248,1.248,1.246,1.243,1.238,1.236,1.233,1.231,1.226,1.219,1.214,1.207,1.202,1.195,1.191,1.186,1.182,1.177,1.173,1.168,1.166,1.164,1.16,1.155,1.151,1.147,1.142,1.136,1.132,1.128,1.124,1.12,1.116,1.114,1.112,1.11,1.108,1.106
2.03,2.037,2.044,2.05,2.057,2.071,2.085,2.099,2.121,2.143,2.158,2.18,2.204,2.219,2.244,2.252,2.268,2.285,2.293,2.31,2.319,2.319,2.328,2.345,2.354,2.372,2.382,2.4,2.419,2.438,2.457,2.477,2.497,0,2.538,2.559,2.569,2.591,2.602,2.624,2.646,2.658,2.669,2.681,2.692,2.716,2.728,2.74,2.764,2.777,2.802,2.802,2.84,2.853,2.867,2.88,2.893,2.907,2.921,2.949,2.963,2.991,3.021,3.05,3.081,3.096,3.127,3.143,3.175,3.192,3.208,3.242,3.259,3.276,3.311,3.347,3.365,3.384,3.402,3.421,3.44,3.459,3.459,3.459,3.479,3.518,3.538,3.559,3.579,3.6,3.642,3.686,3.73,3.799,3.846,3.919,3.995,4.047,4.128,4.184,4.241,4.27,4.33,4.361,4.361,4.392,4.392,4.423,4.455,4.52,4.553,4.587,4.656,4.691,4.727,4.763,4.838,4.876,4.954,4.994,5.034,5.117,5.16,5.203,5.203,5.248,5.248,5.203,5.203,5.203,5.16,5.117,5.117,5.075,5.034,5.034,4.994,4.994,4.954,4.954,4.954,4.954,4.954,4.954,4.954,4.954,4.994,4.954,4.994,4.994,4.994,4.994,4.994,4.994,4.994,4.954,4.954,4.914,4.914,4.914,4.914,4.914,4.876,4.876,4.876,4.914,4.914,4.954,4.994,4.994,5.034,5.075,5.075,5.075,5.075,5.117,5.117,5.117,5.075,5.075,5.075,5.075,5.075,5.075,5.075,5.034,5.034,4.994,4.994,4.954,4.954,4.914,4.876,4.838,4.838,4.838,4.8,4.838,4.8,4.8,4.8,4.838,4.838,4.876,4.876,4.914,4.914,4.954,4.994,4.994,5.034,5.034,5.075,5.117,5.117,5.117,5.117,5.117,5.075,5.075,5.075,5.034,4.994,4.954,4.914,4.876,4.838,4.8,4.8,4.763,4.8,4.8,4.838,4.876,4.914,4.914,4.954,4.954,4.954,4.994,4.994,5.034,5.034,5.034,5.075,5.075,5.117,5.117,5.117,5.117,5.117,5.16,5.203,5.203,5.203,5.16,5.16,5.16,5.16,5.075,5.075,4.994,4.914,4.838,4.8,4.763,4.691,4.656,4.587,4.553,4.52,4.52,4.487,4.487,4.455,4.455,4.423,4.361,4.3,4.212,4.128,4.021,3.969,3.894,3.822,3.776,3.753,3.753,3.73,3.73,3.73,3.708,3.686,3.686,3.686,3.664,3.642,3.621,3.621,3.6,3.579,3.559,3.518,3.518,3.498,3.479,3.44,3.402,3.347,3.276,3.225,3.175,3.127,3.065,3.021,2.977,2.949,2.935,2.921,2.907,2.893,2.893,2.88,2.867,2.853,2.84,2.815,2.777,2.752,2.716,2.681,2.658,2.624,2.602,2.58,2.569,2.559,2.548,2.527,2.517,2.497,2.487,2.467,2.447,2.428,2.4,2.382,2.363,2.345,2.319,2.302,2.293,2.276,2.26,2.244,2.235,2.227,2.211,2.204,2.196,2.188,2.173,2.165,2.15,2.135,2.121,2.113,2.092,2.078,2.064,2.05,2.037,2.024,2.01,1.997,1.985,1.972,1.96,1.947,1.935,1.923,1.917,1.905,1.899,1.894,1.882,1.876,1.865,1.859,1.854,1.848,1.843,1.837,1.827,1.816,1.805,1.8,1.79,1.779,1.769,1.759,1.744,1.734,1.725,1.715,1.706,1.701,1.696,1.687,1.683,1.674,1.669,1.665,1.656,1.647,1.634,1.625,1.617,1.604,1.596,1.588,1.58,1.572,1.568,1.564,1.56,1.556,1.548,1.544,1.536,1.533,1.525,1.521,1.51,1.503,1.496,1.485,1.478,1.471,1.464,1.457,1.45,1.447,1.443,1.443,1.44,1.433,1.43,1.423,1.42,1.414,1.41,1.404,1.398,1.388,1.385,1.379,1.373,1.37,1.364,1.358,1.352,1.349,1.34,1.334,1.326,1.317,1.312,1.304,1.298,1.29,1.287,1.282,1.279,1.274,1.271,1.269,1.266,1.264,1.264,1.261,1.259,1.256,1.253,1.253,1.251,1.251,1.248,1.246,1.243,1.238,1.236,1.233,1.229,1.224,1.219,1.212,1.207,1.2,1.195,1.191,1.186,1.182,1.175,1.173,1.168,1.166,1.162,1.157,1.153,1.149,1.145,1.14,1.134,1.13,1.126,1.122,1.118,1.116,1.114,1.112,1.11,1.108,1.104
2.03,2.037,2.044,2.05,2.064,2.071,2.085,2.099,2.113,2.128,2.15,2.165,2.188,2.204,2.227,2.244,2.252,2.268,2.285,2.293,2.31,2.319,2.328,2.337,2.345,2.363,2.382,2.4,2.419,2.438,2.457,2.477,2.497,0,2.538,2.559,2.58,2.591,2.602,2.624,2.635,2.658,2.681,2.681,2.692,2.704,2.728,2.74,2.752,2.764,2.789,2.802,2.827,2.84,2.853,2.867,2.88,2.893,2.907,2.935,2.963,2.991,3.021,3.05,3.081,3.096,3.127,3.159,3.192,3.208,3.225,3.259,3.276,3.311,3.329,3.347,3.384,3.402,3.421,3.44,3.459,3.459,3.479,3.479,3.479,3.498,3.518,3.538,3.559,3.579,3.621,3.664,3.708,3.753,3.822,3.894,3.944,4.021,4.128,4.156,4.212,4.27,4.33,4.361,4.361,4.392,4.392,4.423,4.455,4.52,4.553,4.587,4.656,4.727,4.763,4.8,4.838,4.914,4.994,5.034,5.075,5.16,5.203,5.248,5.292,5.292,5.292,5.292,5.248,5.248,5.203,5.16,5.117,5.117,5.034,5.034,4.994,4.994,4.994,4.954,4.954,4.954,4.954,4.994,4.994,4.994,4.994,4.994,5.034,5.034,5.034,5.034,5.034,4.994,5.034,4.994,4.994,4.954,4.954,4.914,4.914,4.876,4.914,4.914,4.914,4.954,4.954,4.994,5.034,5.075,5.075,5.117,5.16,5.16,5.16,5.16,5.16,5.16,5.16,5.16,5.16,5.117,5.117,5.117,5.117,5.034,5.034,5.034,4.994,4.994,4.994,4.954,4.914,4.914,4.838,4.838,4.838,4.838,4.8,4.8,4.8,4.838,4.838,4.876,4.876,4.914,4.914,4.954,4.994,4.994,5.034,5.075,5.075,5.117,5.117,5.117,5.16,5.16,5.117,5.16,5.117,5.117,5.034,5.034,4.994,4.954,4.914,4.876,4.876,4.838,4.876,4.876,4.876,4.914,4.914,4.954,4.954,4.954,4.954,4.994,4.994,5.034,5.034,5.034,5.034,5.075,5.075,5.075,5.075,5.117,5.117,5.117,5.16,5.16,5.16,5.16,5.16,5.16,5.16,5.075,5.075,4.994,4.914,4.838,4.8,4.727,4.691,4.656,4.587,4.587,4.553,4.553,4.52,4.487,4.487,4.487,4.487,4.392,4.33,4.241,4.156,4.074,4.021,3.944,3.846,3.799,3.776,3.776,3.776,3.753,3.753,3.73,3.73,3.708,3.708,3.686,3.664,3.642,3.621,3.6,3.579,3.559,3.518,3.518,3.498,3.479,3.44,3.402,3.347,3.294,3.242,3.192,3.127,3.081,3.035,2.991,2.963,2.949,2.935,2.921,2.907,2.907,2.893,2.88,2.867,2.853,2.827,2.802,2.777,2.74,2.704,2.681,2.646,2.624,2.602,2.58,2.569,2.559,2.538,2.527,2.507,2.487,2.467,2.447,2.428,2.409,2.382,2.354,2.337,2.319,2.302,2.285,2.268,2.252,2.244,2.235,2.227,2.219,2.211,2.204,2.188,2.18,2.165,2.15,2.135,2.121,2.106,2.092,2.078,2.064,2.05,2.037,2.017,2.01,1.997,1.985,1.972,1.96,1.947,1.935,1.923,1.917,1.905,1.894,1.888,1.882,1.876,1.865,1.859,1.854,1.848,1.843,1.837,1.827,1.816,1.811,1.8,1.795,1.784,1.774,1.759,1.749,1.739,1.73,1.72,1.711,1.701,1.696,1.692,1.687,1.678,1.669,1.665,1.656,1.647,1.638,1.625,1.617,1.604,1.596,1.588,1.58,1.572,1.568,1.564,1.56,1.556,1.548,1.544,1.536,1.533,1.525,1.518,1.51,1.503,1.496,1.485,1.478,1.471,1.464,1.457,1.454,1.45,1.447,1.443,1.44,1.437,1.433,1.427,1.423,1.417,1.414,1.407,1.401,1.395,1.388,1.385,1.379,1.373,1.367,1.361,1.355,1.349,1.343,1.337,1.329,1.32,1.315,1.309,1.304,1.295,1.293,1.287,1.285,1.282,1.277,1.274,1.271,1.269,1.266,1.264,1.261,1.259,1.256,1.256,1.253,1.251,1.248,1.246,1.243,1.238,1.233,1.231,1.226,1.221,1.217,1.212,1.205,1.2,1.195,1.188,1.184,1.179,1.175,1.171,1.168,1.164,1.162,1.157,1.153,1.147,1.142,1.138,1.132,1.128,1.124,1.12,1.118,1.114,1.112,1.11,1.108,1.106,1.104
2.037,2.044,2.05,2.057,2.064,2.071,2.085,2.099,2.113,2.128,2.143,2.158,2.18,2.196,2.211,2.227,2.235,2.252,2.268,2.276,2.293,2.302,2.31,2.328,2.337,2.345,2.363,2.391,2.409,2.428,2.457,2.477,2.497,2.517,2.548,2.559,2.58,2.591,2.602,2.624,2.646,2.658,2.669,2.681,2.692,2.704,2.716,2.728,2.752,2.764,2.777,2.789,2.815,2.84,2.853,2.867,2.88,2.893,2.907,2.921,2.963,2.977,3.006,3.05,3.081,3.112,3.143,3.175,3.192,3.225,3.242,3.259,3.294,3.311,3.347,3.365,3.384,3.402,3.421,3.44,3.459,3.459,3.479,3.479,3.498,3.498,3.538,3.538,3.579,3.579,3.621,3.642,3.686,3.73,3.799,3.87,3.944,4.021,4.101,4.156,4.241,4.3,4.33,4.361,4.392,4.392,4.423,4.455,4.487,4.52,4.587,4.621,4.691,4.727,4.763,4.838,4.876,4.954,4.994,5.075,5.16,5.203,5.292,5.338,5.384,5.384,5.338,5.338,5.338,5.292,5.248,5.203,5.16,5.117,5.075,5.075,5.034,5.034,4.994,4.994,4.994,4.994,4.994,5.034,5.034,5.034,5.034,5.034,5.034,5.075,5.034,5.075,5.034,5.075,5.034,4.994,4.994,4.954,4.914,4.914,4.914,4.914,4.914,4.914,4.914,4.954,4.994,5.034,5.075,5.117,5.16,5.203,5.203,5.203,5.203,5.203,5.248,5.248,5.248,5.203,5.203,5.203,5.16,5.16,5.16,5.117,5.075,5.075,5.075,5.034,5.034,4.994,4.994,4.914,4.914,4.876,4.838,4.838,4.8,4.8,4.8,4.838,4.838,4.876,4.876,4.914,4.914,4.954,4.994,5.034,5.034,5.075,5.117,5.117,5.16,5.16,5.16,5.203,5.16,5.203,5.16,5.16,5.117,5.075,5.034,4.994,4.994,4.954,4.914,4.876,4.914,4.914,4.954,4.954,4.954,4.954,4.954,4.954,4.994,4.994,4.994,5.034,5.034,5.034,5.034,5.034,5.075,5.034,5.075,5.075,5.075,5.117,5.117,5.117,5.16,5.16,5.16,5.16,5.16,5.075,5.034,4.994,4.914,4.838,4.8,4.727,4.691,4.621,4.621,4.587,4.553,4.553,4.553,4.52,4.52,4.52,4.52,4.423,4.361,4.3,4.212,4.128,4.074,3.969,3.894,3.846,3.799,3.799,3.799,3.776,3.776,3.753,3.753,3.73,3.708,3.686,3.686,3.664,3.642,3.6,3.6,3.579,3.559,3.518,3.518,3.479,3.459,3.421,3.365,3.311,3.259,3.208,3.159,3.096,3.05,3.021,2.991,2.963,2.949,2.935,2.935,2.921,2.907,2.893,2.88,2.867,2.84,2.815,2.789,2.764,2.728,2.692,2.669,2.646,2.624,2.602,2.58,2.569,2.559,2.538,2.517,2.497,2.477,2.457,2.428,2.409,2.382,2.363,2.337,2.319,2.302,2.285,2.268,2.252,2.244,2.235,2.227,2.219,2.211,2.204,2.188,2.18,2.165,2.15,2.135,2.121,2.106,2.092,2.078,2.064,2.05,2.037,2.024,2.01,1.997,1.985,1.972,1.96,1.947,1.935,1.923,1.911,1.905,1.894,1.888,1.882,1.871,1.865,1.859,1.854,1.848,1.843,1.837,1.827,1.816,1.811,1.8,1.795,1.779,1.769,1.759,1.749,1.739,1.73,1.72,1.711,1.701,1.696,1.692,1.687,1.678,1.674,1.665,1.656,1.647,1.638,1.625,1.617,1.604,1.596,1.588,1.58,1.572,1.568,1.564,1.56,1.552,1.548,1.544,1.536,1.533,1.525,1.518,1.51,1.503,1.496,1.488,1.481,1.474,1.467,1.464,1.457,1.454,1.447,1.447,1.44,1.437,1.433,1.427,1.423,1.42,1.414,1.41,1.404,1.398,1.395,1.388,1.382,1.379,1.373,1.364,1.358,1.352,1.346,1.337,1.332,1.323,1.317,1.312,1.306,1.304,1.298,1.293,1.29,1.287,1.282,1.279,1.277,1.271,1.269,1.266,1.264,1.261,1.259,1.256,1.256,1.251,1.248,1.246,1.241,1.236,1.233,1.229,1.224,1.219,1.212,1.207,1.2,1.198,1.193,1.186,1.182,1.177,1.173,1.171,1.168,1.164,1.16,1.155,1.151,1.147,1.14,1.136,1.13,1.126,1.122,1.118,1.116,1.112,1.11,1.108,1.106,1.104,1.102
2.037,2.044,2.05,2.057,2.071,2.078,2.085,2.099,2.113,2.128,2.135,2.15,2.165,2.18,2.204,2.219,2.235,2.244,2.26,2.276,2.285,2.293,2.302,2.319,2.328,2.345,2.363,2.391,2.409,2.428,2.457,2.477,2.497,2.527,2.548,2.569,2.58,2.591,2.613,2.624,2.646,2.658,2.669,2.681,2.681,2.692,2.716,2.716,2.74,2.752,2.764,2.789,2.815,2.84,2.853,2.853,2.88,2.893,2.907,2.921,2.935,2.963,2.991,3.035,3.065,3.096,3.143,3.175,3.208,3.225,3.259,3.276,3.294,3.311,3.347,3.365,3.384,3.402,3.44,3.44,3.459,3.479,3.479,3.479,3.498,3.518,3.518,3.559,3.559,3.579,3.621,3.642,3.664,3.73,3.799,3.87,3.944,4.047,4.101,4.156,4.27,4.3,4.361,4.361,4.392,4.392,4.423,4.455,4.487,4.553,4.587,4.656,4.691,4.727,4.763,4.838,4.876,4.954,5.034,5.075,5.16,5.248,5.338,5.384,5.432,5.432,5.432,5.384,5.384,5.338,5.292,5.248,5.203,5.16,5.117,5.075,5.075,5.034,5.034,5.034,5.034,5.034,5.034,5.075,5.075,5.075,5.075,5.075,5.075,5.117,5.117,5.117,5.075,5.075,5.075,5.034,4.994,4.994,4.954,4.914,4.914,4.914,4.914,4.914,4.914,4.994,4.994,5.034,5.075,5.16,5.16,5.203,5.248,5.292,5.292,5.292,5.292,5.292,5.292,5.248,5.248,5.248,5.203,5.203,5.16,5.117,5.117,5.075,5.075,5.034,5.034,5.034,4.994,4.994,4.914,4.914,4.876,4.838,4.838,4.8,4.8,4.838,4.876,4.876,4.914,4.914,4.954,4.954,4.994,5.034,5.075,5.075,5.117,5.16,5.16,5.203,5.203,5.203,5.203,5.248,5.203,5.203,5.203,5.16,5.117,5.117,5.075,5.034,4.994,4.994,4.994,4.994,4.994,4.994,4.994,4.994,4.994,4.994,4.994,4.994,4.994,4.994,5.034,5.034,5.034,5.034,5.034,5.034,5.034,5.034,5.034,5.075,5.075,5.117,5.117,5.117,5.117,5.117,5.117,5.075,5.034,4.954,4.876,4.838,4.763,4.727,4.691,4.621,4.621,4.587,4.587,4.587,4.587,4.553,4.553,4.553,4.52,4.455,4.392,4.33,4.241,4.156,4.101,4.021,3.919,3.87,3.822,3.822,3.822,3.799,3.799,3.776,3.753,3.73,3.708,3.686,3.686,3.664,3.642,3.621,3.6,3.579,3.559,3.538,3.518,3.479,3.459,3.421,3.365,3.311,3.259,3.225,3.175,3.112,3.065,3.035,3.006,2.977,2.963,2.949,2.935,2.921,2.907,2.893,2.88,2.867,2.84,2.815,2.789,2.764,2.728,2.704,2.681,2.658,2.635,2.613,2.591,2.58,2.569,2.538,2.527,2.497,2.487,2.457,2.438,2.409,2.382,2.363,2.337,2.319,2.302,2.285,2.268,2.252,2.244,2.235,2.227,2.219,2.211,2.204,2.196,2.18,2.165,2.158,2.143,2.128,2.113,2.099,2.085,2.064,2.05,2.037,2.024,2.01,1.997,1.985,1.972,1.96,1.947,1.929,1.923,1.911,1.899,1.894,1.882,1.876,1.871,1.865,1.859,1.848,1.848,1.843,1.832,1.827,1.816,1.811,1.8,1.79,1.779,1.769,1.759,1.744,1.734,1.725,1.72,1.711,1.701,1.696,1.692,1.687,1.683,1.674,1.665,1.656,1.647,1.638,1.625,1.617,1.604,1.596,1.588,1.58,1.572,1.568,1.564,1.56,1.552,1.548,1.544,1.536,1.533,1.525,1.518,1.51,1.507,1.499,1.488,1.485,1.478,1.471,1.464,1.46,1.457,1.454,1.447,1.443,1.44,1.437,1.43,1.427,1.423,1.417,1.41,1.407,1.404,1.398,1.395,1.388,1.382,1.373,1.367,1.361,1.355,1.346,1.34,1.334,1.329,1.32,1.317,1.312,1.306,1.304,1.301,1.295,1.29,1.287,1.285,1.279,1.277,1.274,1.269,1.266,1.264,1.261,1.259,1.256,1.253,1.248,1.243,1.241,1.233,1.231,1.226,1.219,1.214,1.207,1.202,1.198,1.193,1.188,1.184,1.179,1.175,1.173,1.171,1.166,1.164,1.16,1.155,1.151,1.145,1.14,1.134,1.13,1.126,1.12,1.118,1.114,1.11,1.108,1.106,1.104,1.104,1.102
2.037,2.044,2.05,2.057,2.071,2.078,2.085,2.099,2.106,2.121,2.135,2.143,2.165,2.173,2.196,2.211,2.227,2.235,2.252,2.268,2.276,2.285,2.302,2.319,2.328,2.345,2.363,2.391,2.419,2.438,2.467,2.497,2.517,2.538,2.559,2.58,2.591,2.602,2.613,2.635,2.646,2.658,2.669,2.669,2.681,2.692,2.704,2.716,2.728,2.74,2.752,2.777,2.802,2.815,2.84,2.84,2.867,2.88,2.893,2.907,2.921,2.949,2.977,3.021,3.065,3.096,3.143,3.175,3.208,3.242,3.259,3.276,3.311,3.329,3.347,3.365,3.384,3.402,3.421,3.44,3.459,3.459,3.479,3.479,3.498,3.518,3.538,3.559,3.579,3.6,3.621,3.642,3.686,3.73,3.799,3.87,3.969,4.047,4.128,4.184,4.27,4.33,4.361,4.423,4.423,4.455,4.455,4.487,4.52,4.553,4.587,4.656,4.691,4.727,4.8,4.838,4.876,4.994,5.034,5.117,5.203,5.292,5.384,5.432,5.48,5.48,5.48,5.432,5.432,5.384,5.338,5.292,5.248,5.16,5.117,5.117,5.075,5.075,5.034,5.034,5.034,5.075,5.075,5.075,5.075,5.117,5.117,5.117,5.117,5.117,5.117,5.117,5.117,5.117,5.075,5.034,4.994,4.994,4.954,4.914,4.914,4.914,4.914,4.914,4.954,4.954,4.994,5.075,5.117,5.117,5.203,5.248,5.248,5.292,5.292,5.292,5.338,5.292,5.292,5.292,5.292,5.248,5.248,5.203,5.16,5.16,5.117,5.117,5.117,5.075,5.075,5.075,5.034,4.994,4.954,4.914,4.876,4.838,4.838,4.8,4.838,4.838,4.876,4.914,4.914,4.954,4.954,4.994,5.034,5.075,5.075,5.117,5.117,5.16,5.16,5.203,5.203,5.248,5.248,5.248,5.248,5.248,5.248,5.203,5.203,5.16,5.16,5.075,5.075,5.034,5.034,5.034,5.034,5.034,5.034,5.034,5.034,5.034,5.034,4.994,4.994,5.034,5.034,5.034,5.034,5.034,5.034,4.994,4.994,4.994,5.034,5.034,5.075,5.075,5.117,5.117,5.117,5.117,5.117,5.075,5.034,4.954,4.876,4.838,4.763,4.727,4.656,4.621,4.621,4.621,4.621,4.587,4.587,4.553,4.553,4.553,4.553,4.487,4.392,4.33,4.27,4.184,4.128,4.047,3.944,3.894,3.87,3.846,3.822,3.799,3.799,3.776,3.753,3.73,3.708,3.686,3.686,3.664,3.642,3.621,3.6,3.579,3.559,3.518,3.518,3.479,3.459,3.421,3.384,3.329,3.276,3.225,3.175,3.127,3.096,3.05,3.021,2.991,2.963,2.949,2.935,2.921,2.907,2.88,2.867,2.853,2.827,2.802,2.777,2.752,2.728,2.704,2.669,2.658,2.624,2.613,2.602,2.58,2.559,2.548,2.527,2.507,2.477,2.457,2.428,2.4,2.382,2.354,2.337,2.319,2.302,2.285,2.276,2.26,2.252,2.244,2.235,2.227,2.219,2.204,2.196,2.188,2.173,2.165,2.15,2.135,2.113,2.099,2.085,2.071,2.057,2.044,2.03,2.01,1.997,1.985,1.972,1.96,1.941,1.929,1.917,1.905,1.894,1.888,1.882,1.871,1.865,1.859,1.854,1.848,1.843,1.837,1.832,1.821,1.816,1.805,1.795,1.784,1.774,1.764,1.749,1.739,1.734,1.725,1.715,1.711,1.701,1.696,1.692,1.687,1.683,1.674,1.665,1.66,1.647,1.638,1.625,1.613,1.604,1.596,1.588,1.58,1.572,1.568,1.564,1.56,1.556,1.548,1.544,1.536,1.533,1.529,1.521,1.514,1.507,1.499,1.496,1.488,1.481,1.474,1.467,1.464,1.46,1.454,1.45,1.443,1.44,1.437,1.433,1.427,1.423,1.42,1.417,1.41,1.407,1.401,1.398,1.391,1.382,1.376,1.37,1.361,1.355,1.349,1.343,1.337,1.332,1.326,1.323,1.317,1.315,1.309,1.306,1.301,1.295,1.293,1.29,1.285,1.279,1.277,1.271,1.269,1.266,1.264,1.261,1.259,1.253,1.248,1.243,1.241,1.236,1.231,1.224,1.217,1.209,1.205,1.2,1.195,1.191,1.186,1.182,1.177,1.175,1.173,1.171,1.166,1.164,1.16,1.155,1.151,1.145,1.14,1.134,1.13,1.124,1.12,1.116,1.114,1.11,1.108,1.106,1.104,1.102,1.1
2.044,2.044,2.05,2.057,2.064,2.078,2.085,2.099,2.106,2.113,2.128,2.143,2.158,2.165,2.188,2.196,2.211,2.227,2.244,2.26,2.276,2.285,2.293,2.31,2.328,2.345,2.372,2.4,2.419,2.447,2.477,2.507,2.527,2.548,2.569,2.591,2.602,2.613,2.613,2.635,2.646,2.658,2.658,2.669,2.669,2.681,2.692,2.704,2.716,2.728,2.752,2.764,2.789,2.802,2.827,2.84,2.84,2.867,2.88,2.893,2.907,2.935,2.977,3.006,3.035,3.081,3.127,3.175,3.208,3.242,3.259,3.276,3.294,3.329,3.329,3.347,3.365,3.384,3.402,3.421,3.459,3.459,3.479,3.479,3.498,3.518,3.538,3.559,3.579,3.6,3.642,3.664,3.708,3.753,3.799,3.894,3.969,4.074,4.156,4.212,4.3,4.361,4.392,4.423,4.455,4.455,4.487,4.52,4.553,4.587,4.621,4.656,4.691,4.763,4.8,4.838,4.876,4.954,5.034,5.117,5.203,5.292,5.432,5.48,5.529,5.578,5.529,5.529,5.48,5.48,5.384,5.338,5.292,5.203,5.203,5.16,5.117,5.117,5.075,5.075,5.075,5.117,5.117,5.117,5.16,5.16,5.16,5.16,5.16,5.16,5.16,5.16,5.16,5.117,5.075,5.075,5.034,4.954,4.954,4.914,4.876,4.876,4.914,4.914,4.914,4.954,4.994,5.034,5.075,5.117,5.203,5.203,5.248,5.292,5.292,5.338,5.338,5.338,5.338,5.338,5.292,5.292,5.248,5.203,5.203,5.203,5.16,5.16,5.16,5.117,5.117,5.117,5.075,5.034,4.994,4.954,4.914,4.876,4.876,4.838,4.876,4.876,4.876,4.954,4.954,4.994,4.994,5.034,5.075,5.075,5.075,5.117,5.16,5.16,5.203,5.203,5.203,5.248,5.248,5.248,5.248,5.292,5.292,5.248,5.203,5.203,5.203,5.203,5.16,5.117,5.117,5.075,5.075,5.075,5.075,5.075,5.034,5.034,5.034,5.034,5.034,5.034,5.034,5.034,5.034,5.034,4.994,4.994,4.994,4.994,4.994,4.994,5.034,5.075,5.075,5.117,5.117,5.117,5.117,5.075,4.994,4.954,4.876,4.8,4.763,4.727,4.656,4.621,4.621,4.621,4.621,4.621,4.621,4.587,4.553,4.587,4.553,4.487,4.423,4.361,4.3,4.212,4.184,4.101,3.969,3.919,3.87,3.87,3.822,3.822,3.776,3.753,3.73,3.708,3.708,3.686,3.664,3.664,3.642,3.6,3.579,3.559,3.538,3.518,3.498,3.459,3.44,3.402,3.365,3.329,3.276,3.225,3.192,3.143,3.096,3.065,3.021,2.991,2.977,2.963,2.935,2.921,2.907,2.88,2.853,2.84,2.815,2.789,2.764,2.728,2.704,2.681,2.658,2.635,2.624,2.613,2.591,2.58,2.569,2.548,2.527,2.507,2.477,2.457,2.428,2.4,2.372,2.354,2.328,2.31,2.302,2.285,2.276,2.26,2.252,2.244,2.235,2.227,2.219,2.211,2.196,2.188,2.18,2.165,2.158,2.143,2.128,2.113,2.092,2.078,2.064,2.05,2.03,2.017,1.997,1.985,1.972,1.96,1.941,1.929,1.911,1.899,1.894,1.882,1.876,1.871,1.865,1.854,1.848,1.843,1.837,1.832,1.827,1.816,1.811,1.8,1.795,1.779,1.769,1.759,1.749,1.739,1.73,1.72,1.715,1.706,1.701,1.696,1.692,1.687,1.683,1.674,1.665,1.66,1.647,1.638,1.625,1.617,1.604,1.596,1.588,1.58,1.572,1.568,1.564,1.56,1.556,1.548,1.544,1.54,1.533,1.529,1.525,1.518,1.51,1.503,1.499,1.492,1.485,1.478,1.474,1.467,1.46,1.454,1.45,1.447,1.44,1.437,1.433,1.427,1.423,1.42,1.417,1.41,1.407,1.401,1.398,1.391,1.382,1.376,1.37,1.361,1.355,1.349,1.343,1.337,1.332,1.329,1.323,1.32,1.317,1.315,1.309,1.306,1.301,1.295,1.293,1.287,1.282,1.279,1.274,1.269,1.266,1.264,1.261,1.259,1.253,1.248,1.243,1.238,1.231,1.226,1.221,1.212,1.205,1.2,1.195,1.193,1.188,1.184,1.182,1.177,1.175,1.173,1.171,1.166,1.164,1.16,1.155,1.151,1.145,1.14,1.134,1.13,1.124,1.12,1.116,1.114,1.11,1.108,1.106,1.104,1.102,1.1
2.037,2.044,2.05,2.057,2.064,2.071,2.085,2.092,2.099,2.106,2.121,2.135,2.143,2.158,2.173,2.188,2.204,2.219,2.235,2.252,2.26,2.268,2.285,2.302,2.319,2.345,2.372,2.4,2.428,2.457,2.487,2.517,2.538,2.559,2.58,2.591,2.602,2.602,2.613,2.635,2.646,2.646,2.658,2.658,2.669,2.681,2.692,2.704,2.716,2.728,2.74,2.764,2.777,2.802,2.827,2.827,2.84,2.853,2.867,2.893,2.907,2.935,2.963,3.006,3.05,3.081,3.143,3.175,3.225,3.259,3.276,3.311,3.311,3.329,3.329,3.347,3.365,3.384,3.402,3.44,3.44,3.459,3.479,3.498,3.498,3.518,3.559,3.559,3.579,3.6,3.642,3.686,3.708,3.776,3.822,3.894,4.021,4.074,4.184,4.27,4.33,4.361,4.423,4.455,4.455,4.487,4.52,4.553,4.587,4.587,4.656,4.691,4.727,4.763,4.838,4.876,4.914,4.954,5.034,5.117,5.248,5.338,5.432,5.529,5.529,5.578,5.578,5.578,5.529,5.529,5.432,5.384,5.292,5.248,5.203,5.203,5.16,5.16,5.117,5.117,5.117,5.117,5.117,5.16,5.203,5.203,5.203,5.203,5.203,5.203,5.203,5.16,5.16,5.117,5.075,5.075,5.034,4.994,4.954,4.914,4.876,4.876,4.876,4.914,4.914,4.954,4.994,5.034,5.075,5.117,5.16,5.203,5.248,5.292,5.292,5.338,5.338,5.338,5.338,5.338,5.338,5.292,5.292,5.248,5.248,5.203,5.203,5.203,5.16,5.203,5.16,5.16,5.16,5.117,5.075,5.034,4.994,4.994,4.954,4.914,4.954,4.954,4.994,4.994,4.994,5.034,5.075,5.075,5.075,5.117,5.117,5.117,5.16,5.203,5.203,5.203,5.248,5.248,5.248,5.248,5.292,5.292,5.292,5.292,5.292,5.248,5.248,5.248,5.203,5.16,5.16,5.16,5.117,5.117,5.117,5.117,5.075,5.075,5.075,5.034,5.034,5.034,5.034,5.034,5.034,5.034,4.994,4.994,4.994,4.994,4.994,4.994,5.034,5.034,5.075,5.117,5.117,5.117,5.117,5.075,4.994,4.954,4.876,4.8,4.763,4.727,4.656,4.656,4.621,4.621,4.621,4.587,4.587,4.553,4.553,4.587,4.553,4.487,4.423,4.361,4.3,4.27,4.212,4.128,3.995,3.944,3.894,3.87,3.846,3.822,3.799,3.753,3.73,3.708,3.686,3.664,3.642,3.642,3.621,3.6,3.579,3.559,3.518,3.498,3.479,3.44,3.421,3.384,3.365,3.329,3.276,3.242,3.192,3.159,3.112,3.081,3.035,3.006,2.977,2.949,2.935,2.907,2.88,2.853,2.84,2.815,2.789,2.764,2.74,2.716,2.692,2.669,2.658,2.635,2.613,2.602,2.591,2.58,2.569,2.548,2.527,2.507,2.477,2.447,2.419,2.4,2.372,2.345,2.328,2.31,2.302,2.285,2.276,2.26,2.252,2.244,2.235,2.227,2.219,2.211,2.196,2.188,2.18,2.165,2.158,2.143,2.128,2.113,2.099,2.085,2.064,2.05,2.037,2.024,2.004,1.985,1.972,1.953,1.941,1.923,1.911,1.894,1.888,1.882,1.876,1.865,1.859,1.854,1.848,1.843,1.837,1.832,1.821,1.816,1.805,1.795,1.784,1.774,1.764,1.754,1.744,1.734,1.725,1.715,1.711,1.706,1.701,1.696,1.692,1.687,1.683,1.674,1.665,1.66,1.651,1.642,1.625,1.617,1.608,1.6,1.588,1.58,1.576,1.568,1.564,1.56,1.556,1.548,1.544,1.54,1.533,1.529,1.525,1.521,1.514,1.51,1.503,1.496,1.492,1.485,1.478,1.471,1.464,1.457,1.45,1.447,1.44,1.437,1.433,1.427,1.423,1.42,1.417,1.41,1.407,1.401,1.398,1.388,1.382,1.376,1.367,1.361,1.355,1.349,1.343,1.337,1.334,1.332,1.329,1.326,1.32,1.317,1.315,1.309,1.304,1.301,1.295,1.29,1.285,1.279,1.277,1.271,1.266,1.264,1.261,1.256,1.251,1.248,1.243,1.236,1.231,1.226,1.219,1.209,1.205,1.198,1.193,1.191,1.186,1.184,1.179,1.177,1.175,1.173,1.171,1.166,1.164,1.16,1.157,1.151,1.147,1.142,1.136,1.13,1.126,1.122,1.118,1.114,1.112,1.108,1.106,1.104,1.102,1.1
2.037,2.044,2.05,2.057,2.064,2.071,2.078,2.085,2.099,2.106,2.113,2.121,2.135,2.15,2.165,2.18,2.196,2.211,2.227,2.244,2.26,2.268,2.276,2.302,2.31,2.328,2.354,2.382,2.409,2.438,2.477,2.497,2.527,2.548,2.569,2.58,2.591,2.591,2.602,2.613,2.624,2.635,2.646,2.646,2.658,2.669,2.681,2.692,2.704,2.716,2.728,2.752,2.764,2.789,2.815,2.827,2.84,2.84,2.867,2.88,2.907,2.935,2.977,3.021,3.065,3.112,3.175,3.208,3.259,3.294,3.311,3.329,3.347,3.347,3.365,3.365,3.365,3.402,3.421,3.421,3.44,3.459,3.479,3.498,3.518,3.538,3.579,3.579,3.621,3.642,3.686,3.708,3.753,3.822,3.87,3.969,4.047,4.156,4.241,4.3,4.392,4.423,4.455,4.487,4.52,4.52,4.553,4.587,4.587,4.621,4.656,4.727,4.727,4.763,4.838,4.876,4.914,4.954,4.994,5.117,5.203,5.292,5.384,5.48,5.578,5.578,5.578,5.578,5.578,5.529,5.48,5.384,5.338,5.292,5.248,5.248,5.203,5.203,5.16,5.16,5.16,5.16,5.203,5.203,5.203,5.203,5.203,5.203,5.248,5.248,5.203,5.203,5.16,5.16,5.117,5.075,5.034,4.994,4.954,4.914,4.914,4.876,4.876,4.914,4.914,4.954,4.994,5.034,5.075,5.117,5.203,5.248,5.248,5.338,5.338,5.338,5.384,5.384,5.384,5.338,5.338,5.338,5.292,5.292,5.248,5.248,5.203,5.203,5.203,5.248,5.248,5.203,5.203,5.203,5.16,5.16,5.117,5.075,5.075,5.034,5.075,5.075,5.075,5.075,5.075,5.117,5.117,5.117,5.117,5.16,5.16,5.16,5.203,5.203,5.203,5.248,5.248,5.248,5.248,5.292,5.292,5.292,5.292,5.292,5.292,5.292,5.292,5.292,5.248,5.248,5.203,5.203,5.203,5.16,5.16,5.16,5.16,5.117,5.117,5.117,5.075,5.075,5.075,5.075,5.075,5.075,5.034,5.034,5.034,5.034,5.034,5.034,5.034,5.075,5.117,5.117,5.117,5.16,5.117,5.075,4.994,4.914,4.876,4.838,4.763,4.727,4.691,4.656,4.621,4.621,4.656,4.621,4.621,4.553,4.553,4.587,4.553,4.487,4.423,4.361,4.3,4.3,4.241,4.156,4.021,3.969,3.894,3.87,3.846,3.799,3.776,3.73,3.708,3.664,3.664,3.642,3.642,3.621,3.6,3.579,3.559,3.538,3.498,3.479,3.479,3.44,3.421,3.384,3.365,3.329,3.294,3.259,3.225,3.175,3.143,3.096,3.05,3.021,2.977,2.949,2.921,2.893,2.867,2.84,2.815,2.789,2.764,2.74,2.728,2.704,2.681,2.658,2.646,2.635,2.613,2.602,2.591,2.58,2.569,2.548,2.527,2.507,2.477,2.447,2.419,2.391,2.363,2.337,2.319,2.302,2.293,2.285,2.268,2.26,2.252,2.244,2.235,2.219,2.211,2.204,2.196,2.188,2.18,2.165,2.158,2.143,2.128,2.113,2.099,2.085,2.064,2.057,2.037,2.024,2.004,1.985,1.966,1.953,1.935,1.923,1.905,1.894,1.882,1.876,1.871,1.865,1.859,1.854,1.848,1.843,1.832,1.827,1.821,1.811,1.8,1.79,1.779,1.769,1.754,1.744,1.734,1.73,1.72,1.715,1.706,1.701,1.696,1.696,1.692,1.687,1.678,1.674,1.665,1.66,1.651,1.642,1.625,1.617,1.608,1.6,1.588,1.58,1.572,1.568,1.564,1.56,1.552,1.548,1.544,1.54,1.536,1.533,1.525,1.521,1.518,1.514,1.507,1.503,1.496,1.485,1.478,1.471,1.464,1.457,1.454,1.447,1.44,1.437,1.43,1.427,1.423,1.42,1.417,1.41,1.407,1.401,1.395,1.388,1.382,1.373,1.367,1.361,1.355,1.349,1.343,1.34,1.337,1.334,1.332,1.329,1.326,1.32,1.317,1.312,1.306,1.301,1.295,1.293,1.287,1.282,1.277,1.271,1.266,1.264,1.261,1.256,1.251,1.246,1.241,1.236,1.229,1.224,1.217,1.209,1.202,1.198,1.193,1.188,1.186,1.184,1.179,1.177,1.175,1.173,1.171,1.168,1.166,1.162,1.157,1.153,1.149,1.145,1.138,1.134,1.128,1.124,1.118,1.114,1.112,1.108,1.106,1.104,1.102,1.1
2.037,2.044,2.05,2.057,2.064,2.071,2.078,2.085,2.092,2.099,2.113,2.121,2.135,2.15,2.165,2.18,2.196,2.211,2.219,2.235,2.252,2.26,2.276,2.285,2.302,2.319,2.337,2.363,2.391,2.419,2.447,2.487,2.507,2.527,2.559,2.569,2.569,2.58,2.591,2.602,2.602,2.613,2.624,2.635,2.646,2.646,2.658,2.681,2.692,2.704,2.716,2.74,2.752,2.777,2.802,2.815,2.815,2.84,2.853,2.893,2.921,2.963,3.006,3.05,3.096,3.159,3.208,3.259,3.311,3.347,3.347,3.365,3.384,3.384,3.402,3.402,3.402,3.421,3.421,3.44,3.459,3.459,3.498,3.518,3.538,3.559,3.6,3.621,3.664,3.686,3.73,3.776,3.822,3.87,3.944,4.021,4.101,4.184,4.27,4.33,4.423,4.455,4.487,4.52,4.553,4.587,4.587,4.621,4.621,4.656,4.691,4.727,4.727,4.763,4.8,4.838,4.876,4.914,4.994,5.034,5.16,5.248,5.338,5.432,5.529,5.578,5.629,5.578,5.578,5.529,5.432,5.432,5.338,5.292,5.248,5.248,5.203,5.203,5.203,5.203,5.203,5.203,5.203,5.203,5.203,5.248,5.248,5.248,5.248,5.248,5.248,5.203,5.203,5.16,5.117,5.075,5.034,5.034,4.954,4.954,4.914,4.914,4.914,4.914,4.954,4.994,4.994,5.034,5.075,5.16,5.203,5.248,5.292,5.338,5.338,5.384,5.384,5.384,5.384,5.384,5.384,5.384,5.338,5.338,5.292,5.248,5.248,5.248,5.248,5.248,5.248,5.292,5.248,5.248,5.248,5.248,5.203,5.203,5.203,5.16,5.16,5.16,5.203,5.203,5.203,5.203,5.203,5.203,5.203,5.203,5.203,5.248,5.248,5.248,5.248,5.248,5.248,5.248,5.248,5.292,5.292,5.292,5.292,5.338,5.292,5.292,5.292,5.292,5.292,5.292,5.248,5.248,5.248,5.203,5.203,5.203,5.203,5.16,5.16,5.16,5.16,5.117,5.117,5.117,5.075,5.075,5.075,5.034,5.034,5.034,5.034,5.075,5.075,5.117,5.117,5.16,5.16,5.16,5.117,5.075,4.994,4.954,4.876,4.838,4.763,4.727,4.691,4.656,4.656,4.656,4.656,4.621,4.587,4.553,4.52,4.52,4.52,4.487,4.392,4.361,4.3,4.27,4.241,4.156,4.021,3.969,3.87,3.87,3.822,3.776,3.753,3.708,3.686,3.664,3.642,3.642,3.621,3.6,3.6,3.579,3.559,3.538,3.518,3.498,3.479,3.44,3.421,3.402,3.365,3.347,3.311,3.276,3.242,3.208,3.159,3.112,3.081,3.035,2.991,2.963,2.921,2.88,2.853,2.815,2.789,2.764,2.74,2.716,2.692,2.681,2.669,2.658,2.635,2.624,2.613,2.602,2.591,2.58,2.569,2.548,2.527,2.507,2.477,2.447,2.419,2.391,2.363,2.337,2.319,2.302,2.293,2.276,2.268,2.26,2.252,2.235,2.227,2.219,2.211,2.196,2.196,2.18,2.173,2.165,2.15,2.143,2.128,2.113,2.099,2.085,2.064,2.057,2.037,2.024,1.997,1.985,1.966,1.953,1.935,1.923,1.905,1.894,1.882,1.876,1.871,1.865,1.859,1.848,1.843,1.837,1.832,1.827,1.816,1.805,1.795,1.784,1.774,1.764,1.754,1.739,1.73,1.725,1.72,1.711,1.706,1.701,1.696,1.696,1.692,1.687,1.678,1.674,1.665,1.66,1.651,1.642,1.629,1.617,1.608,1.6,1.588,1.58,1.572,1.568,1.564,1.556,1.552,1.548,1.544,1.536,1.533,1.533,1.529,1.525,1.521,1.514,1.51,1.503,1.496,1.488,1.481,1.474,1.467,1.457,1.45,1.443,1.44,1.433,1.43,1.427,1.423,1.42,1.414,1.41,1.404,1.401,1.391,1.385,1.379,1.37,1.364,1.358,1.352,1.349,1.343,1.34,1.337,1.334,1.334,1.332,1.329,1.326,1.32,1.315,1.309,1.304,1.298,1.293,1.285,1.279,1.274,1.269,1.266,1.261,1.256,1.253,1.248,1.246,1.238,1.233,1.229,1.221,1.217,1.209,1.202,1.198,1.191,1.188,1.186,1.182,1.179,1.177,1.175,1.173,1.171,1.168,1.166,1.164,1.16,1.155,1.151,1.147,1.14,1.136,1.13,1.126,1.12,1.116,1.112,1.11,1.106,1.104,1.102,1.102
2.037,2.044,2.05,2.05,2.057,2.064,2.071,2.085,2.092,2.099,2.106,2.113,2.128,2.143,2.158,2.18,2.188,2.204,2.219,2.235,2.252,2.26,2.26,2.276,2.293,2.302,2.319,2.345,2.363,2.391,2.428,2.457,2.487,2.507,2.538,2.548,2.548,2.559,2.569,2.58,2.591,2.591,2.613,2.613,2.624,2.635,2.646,2.658,2.669,2.681,2.704,2.728,2.752,2.777,2.789,2.802,2.815,2.84,2.867,2.907,2.963,3.021,3.065,3.112,3.175,3.225,3.294,3.347,3.365,3.402,3.402,3.421,3.421,3.44,3.44,3.44,3.44,3.44,3.459,3.479,3.498,3.498,3.518,3.538,3.559,3.6,3.642,3.664,3.686,3.73,3.799,3.822,3.87,3.919,3.969,4.047,4.156,4.241,4.3,4.361,4.455,4.487,4.52,4.553,4.587,4.621,4.621,4.656,4.656,4.691,4.691,4.727,4.763,4.763,4.8,4.838,4.838,4.876,4.954,4.994,5.075,5.203,5.292,5.384,5.432,5.48,5.529,5.48,5.48,5.432,5.384,5.338,5.292,5.248,5.248,5.203,5.203,5.203,5.203,5.203,5.203,5.203,5.203,5.248,5.248,5.248,5.248,5.292,5.248,5.248,5.248,5.248,5.203,5.203,5.117,5.075,5.075,4.994,4.994,4.954,4.914,4.914,4.914,4.914,4.954,4.954,4.994,5.075,5.075,5.16,5.203,5.248,5.292,5.338,5.384,5.384,5.432,5.432,5.432,5.432,5.432,5.432,5.384,5.384,5.338,5.292,5.292,5.292,5.292,5.292,5.292,5.292,5.338,5.292,5.292,5.292,5.292,5.292,5.248,5.248,5.292,5.292,5.292,5.292,5.292,5.292,5.338,5.292,5.292,5.292,5.292,5.292,5.292,5.292,5.292,5.292,5.292,5.292,5.292,5.292,5.292,5.292,5.292,5.292,5.292,5.338,5.338,5.338,5.338,5.292,5.292,5.292,5.292,5.248,5.248,5.248,5.248,5.248,5.203,5.203,5.203,5.203,5.203,5.16,5.117,5.117,5.117,5.117,5.117,5.117,5.075,5.117,5.117,5.16,5.16,5.203,5.203,5.203,5.117,5.075,4.994,4.954,4.876,4.838,4.763,4.727,4.691,4.656,4.691,4.656,4.656,4.621,4.587,4.52,4.487,4.487,4.487,4.423,4.33,4.3,4.27,4.241,4.212,4.128,4.021,3.944,3.87,3.822,3.776,3.753,3.708,3.686,3.642,3.642,3.621,3.621,3.621,3.6,3.6,3.579,3.559,3.538,3.518,3.498,3.479,3.459,3.44,3.421,3.384,3.365,3.329,3.294,3.259,3.225,3.175,3.143,3.096,3.05,3.006,2.963,2.921,2.88,2.84,2.802,2.777,2.752,2.728,2.704,2.681,2.669,2.646,2.635,2.624,2.613,2.602,2.591,2.58,2.58,2.569,2.548,2.527,2.507,2.477,2.447,2.419,2.391,2.363,2.328,2.31,2.302,2.285,2.276,2.268,2.26,2.244,2.235,2.227,2.219,2.204,2.196,2.188,2.18,2.165,2.158,2.15,2.143,2.128,2.113,2.099,2.085,2.064,2.057,2.037,2.024,1.997,1.985,1.966,1.953,1.935,1.923,1.905,1.894,1.882,1.876,1.871,1.865,1.859,1.848,1.843,1.837,1.832,1.821,1.816,1.8,1.79,1.779,1.769,1.759,1.749,1.739,1.73,1.72,1.715,1.711,1.706,1.696,1.696,1.692,1.692,1.683,1.678,1.674,1.665,1.66,1.651,1.642,1.629,1.617,1.608,1.6,1.588,1.58,1.572,1.568,1.56,1.556,1.552,1.544,1.54,1.536,1.533,1.533,1.529,1.525,1.521,1.518,1.514,1.503,1.499,1.488,1.481,1.474,1.464,1.457,1.45,1.443,1.44,1.433,1.43,1.427,1.423,1.42,1.414,1.41,1.404,1.398,1.391,1.385,1.379,1.37,1.364,1.358,1.352,1.349,1.346,1.343,1.34,1.337,1.334,1.332,1.332,1.326,1.323,1.317,1.312,1.306,1.298,1.293,1.287,1.279,1.274,1.269,1.264,1.259,1.256,1.251,1.248,1.243,1.238,1.233,1.229,1.221,1.217,1.209,1.205,1.198,1.193,1.191,1.186,1.184,1.182,1.179,1.175,1.175,1.173,1.171,1.168,1.164,1.162,1.157,1.153,1.149,1.142,1.138,1.132,1.128,1.124,1.118,1.114,1.112,1.108,1.106,1.104,1.102
2.037,2.044,2.044,2.05,2.057,2.071,2.078,2.085,2.092,2.099,2.106,2.121,2.135,2.15,2.165,2.18,2.196,2.204,2.227,2.235,2.244,2.252,2.26,2.268,2.276,2.285,2.31,2.328,2.345,2.372,2.409,2.438,2.467,2.487,2.507,2.517,2.527,2.538,2.548,2.559,2.569,2.58,2.591,2.602,2.613,2.624,2.635,2.646,2.658,2.681,2.704,2.716,2.74,2.764,2.789,2.802,2.815,2.84,2.88,2.921,2.991,3.065,3.112,3.175,3.242,3.311,3.384,3.44,3.459,3.479,3.479,3.498,3.518,3.518,3.518,3.498,3.498,3.518,3.518,3.518,3.518,3.538,3.559,3.559,3.579,3.621,3.664,3.708,3.753,3.799,3.846,3.87,3.919,3.969,4.021,4.128,4.184,4.27,4.33,4.392,4.455,4.487,4.553,4.587,4.587,4.621,4.656,4.656,4.691,4.691,4.727,4.727,4.763,4.763,4.8,4.8,4.8,4.838,4.876,4.954,4.994,5.117,5.203,5.292,5.338,5.384,5.432,5.384,5.384,5.338,5.248,5.248,5.203,5.203,5.16,5.16,5.16,5.203,5.203,5.203,5.248,5.248,5.248,5.248,5.292,5.292,5.292,5.292,5.292,5.248,5.248,5.248,5.203,5.203,5.16,5.117,5.034,5.034,4.994,4.954,4.914,4.914,4.914,4.914,4.954,4.954,5.034,5.034,5.117,5.16,5.203,5.292,5.338,5.384,5.432,5.432,5.48,5.48,5.48,5.48,5.48,5.48,5.432,5.384,5.384,5.338,5.338,5.338,5.338,5.338,5.338,5.338,5.338,5.384,5.384,5.384,5.384,5.384,5.338,5.384,5.384,5.384,5.384,5.432,5.384,5.432,5.432,5.432,5.432,5.384,5.384,5.338,5.338,5.338,5.338,5.338,5.292,5.292,5.292,5.292,5.338,5.338,5.338,5.338,5.338,5.384,5.338,5.338,5.338,5.338,5.338,5.338,5.338,5.338,5.292,5.292,5.292,5.292,5.292,5.248,5.248,5.248,5.248,5.248,5.203,5.16,5.16,5.16,5.16,5.16,5.16,5.16,5.16,5.203,5.203,5.203,5.203,5.203,5.16,5.075,4.994,4.954,4.876,4.838,4.8,4.727,4.691,4.691,4.691,4.656,4.656,4.621,4.553,4.52,4.455,4.455,4.423,4.392,4.3,4.27,4.241,4.212,4.184,4.101,3.995,3.919,3.822,3.822,3.776,3.73,3.708,3.664,3.642,3.621,3.621,3.621,3.621,3.6,3.6,3.579,3.559,3.538,3.538,3.518,3.498,3.479,3.459,3.421,3.402,3.384,3.347,3.311,3.276,3.242,3.208,3.159,3.112,3.065,3.021,2.963,2.921,2.88,2.84,2.789,2.764,2.728,2.704,2.681,2.658,2.635,2.624,2.613,2.613,2.602,2.591,2.591,2.58,2.58,2.569,2.548,2.527,2.497,2.467,2.438,2.409,2.382,2.354,2.328,2.31,2.293,2.285,2.276,2.268,2.252,2.244,2.227,2.219,2.211,2.204,2.196,2.18,2.173,2.165,2.158,2.143,2.135,2.121,2.106,2.099,2.085,2.064,2.057,2.037,2.024,1.997,1.985,1.966,1.953,1.935,1.923,1.905,1.894,1.888,1.876,1.871,1.865,1.859,1.848,1.843,1.837,1.832,1.821,1.811,1.8,1.79,1.779,1.769,1.759,1.744,1.734,1.725,1.72,1.715,1.711,1.701,1.696,1.696,1.692,1.692,1.687,1.678,1.674,1.665,1.66,1.651,1.642,1.629,1.621,1.608,1.6,1.588,1.58,1.572,1.564,1.56,1.556,1.548,1.544,1.54,1.536,1.533,1.533,1.529,1.525,1.521,1.518,1.514,1.507,1.499,1.488,1.481,1.474,1.464,1.457,1.45,1.443,1.437,1.433,1.43,1.427,1.423,1.42,1.414,1.41,1.404,1.398,1.391,1.385,1.376,1.37,1.361,1.355,1.352,1.349,1.346,1.343,1.34,1.337,1.337,1.334,1.332,1.329,1.323,1.317,1.312,1.306,1.298,1.293,1.287,1.279,1.271,1.266,1.261,1.256,1.253,1.251,1.246,1.241,1.238,1.233,1.229,1.224,1.217,1.212,1.205,1.202,1.195,1.193,1.188,1.186,1.184,1.182,1.179,1.177,1.175,1.173,1.171,1.166,1.164,1.16,1.155,1.151,1.147,1.14,1.134,1.13,1.124,1.12,1.116,1.112,1.11,1.106,1.104,1.102
2.037,2.044,2.044,2.05,2.057,2.071,2.078,2.085,2.099,2.106,2.121,2.135,2.143,2.158,2.18,2.188,2.204,2.219,2.227,2.244,2.252,2.26,2.26,2.268,2.276,2.276,2.293,2.31,2.328,2.354,2.382,2.409,2.428,2.457,2.477,2.487,2.497,2.507,2.517,2.538,2.548,2.559,2.58,2.591,2.602,2.613,2.624,2.646,2.658,2.681,2.692,2.704,2.728,2.752,2.764,2.789,2.815,2.827,2.88,2.935,3.006,3.096,3.159,3.225,3.329,3.384,3.459,3.498,3.559,3.579,3.579,3.579,3.6,3.6,3.6,3.579,3.579,3.579,3.579,3.579,3.579,3.6,3.621,3.621,3.642,3.686,3.708,3.753,3.822,3.87,3.894,3.919,3.969,3.995,4.047,4.128,4.212,4.27,4.361,4.423,4.487,4.52,4.553,4.587,4.587,4.621,4.656,4.691,4.691,4.691,4.691,4.727,4.727,4.763,4.763,4.8,4.8,4.8,4.838,4.876,4.954,5.034,5.117,5.16,5.248,5.292,5.292,5.292,5.292,5.248,5.203,5.16,5.117,5.117,5.117,5.16,5.16,5.16,5.203,5.203,5.248,5.292,5.292,5.292,5.292,5.338,5.338,5.338,5.292,5.292,5.292,5.292,5.248,5.203,5.16,5.16,5.117,5.034,4.994,4.954,4.954,4.914,4.914,4.914,4.914,4.954,5.034,5.034,5.117,5.16,5.248,5.292,5.384,5.432,5.48,5.48,5.529,5.529,5.529,5.529,5.529,5.529,5.48,5.432,5.432,5.432,5.432,5.384,5.384,5.384,5.384,5.384,5.384,5.384,5.432,5.432,5.432,5.432,5.432,5.48,5.48,5.529,5.48,5.529,5.529,5.529,5.529,5.529,5.48,5.48,5.432,5.432,5.432,5.432,5.384,5.384,5.384,5.338,5.338,5.384,5.384,5.384,5.384,5.384,5.384,5.384,5.384,5.384,5.384,5.432,5.384,5.384,5.384,5.384,5.384,5.384,5.384,5.338,5.338,5.338,5.338,5.338,5.292,5.292,5.248,5.248,5.248,5.248,5.203,5.203,5.203,5.203,5.203,5.248,5.248,5.248,5.248,5.203,5.117,5.075,4.994,4.954,4.876,4.838,4.8,4.763,4.727,4.727,4.691,4.691,4.656,4.587,4.553,4.487,4.455,4.455,4.392,4.361,4.27,4.212,4.212,4.184,4.128,4.074,3.969,3.919,3.822,3.822,3.776,3.73,3.708,3.664,3.642,3.621,3.642,3.621,3.621,3.621,3.6,3.579,3.559,3.559,3.538,3.518,3.498,3.498,3.479,3.44,3.421,3.402,3.365,3.329,3.294,3.259,3.225,3.175,3.127,3.081,3.021,2.977,2.921,2.867,2.815,2.789,2.74,2.704,2.681,2.658,2.635,2.613,2.602,2.602,2.591,2.591,2.58,2.58,2.58,2.569,2.569,2.548,2.527,2.507,2.477,2.438,2.409,2.382,2.354,2.328,2.31,2.293,2.285,2.276,2.26,2.252,2.244,2.227,2.219,2.211,2.204,2.196,2.18,2.173,2.165,2.158,2.143,2.128,2.121,2.106,2.092,2.078,2.064,2.057,2.037,2.024,2.004,1.985,1.972,1.953,1.941,1.923,1.911,1.899,1.888,1.882,1.871,1.865,1.859,1.848,1.843,1.837,1.827,1.821,1.811,1.8,1.79,1.779,1.769,1.754,1.744,1.739,1.73,1.725,1.715,1.711,1.706,1.701,1.696,1.696,1.692,1.687,1.683,1.674,1.669,1.66,1.651,1.642,1.634,1.621,1.608,1.6,1.588,1.58,1.572,1.564,1.56,1.552,1.548,1.544,1.54,1.536,1.533,1.529,1.529,1.529,1.521,1.518,1.514,1.507,1.499,1.492,1.481,1.474,1.467,1.457,1.45,1.443,1.437,1.433,1.43,1.427,1.423,1.42,1.414,1.41,1.404,1.398,1.391,1.382,1.376,1.37,1.361,1.358,1.352,1.349,1.346,1.343,1.34,1.34,1.337,1.337,1.334,1.329,1.326,1.32,1.315,1.306,1.301,1.293,1.285,1.279,1.269,1.264,1.259,1.253,1.253,1.248,1.243,1.241,1.238,1.233,1.229,1.226,1.221,1.214,1.209,1.205,1.2,1.195,1.193,1.191,1.186,1.184,1.182,1.179,1.175,1.173,1.171,1.168,1.164,1.16,1.157,1.153,1.147,1.14,1.136,1.132,1.126,1.122,1.118,1.114,1.11,1.108,1.106,1.104
2.037,2.044,2.044,2.05,2.064,2.071,2.078,2.092,2.106,2.113,2.128,2.143,2.158,2.173,2.188,2.204,2.211,2.227,2.235,2.252,2.26,2.26,2.26,2.268,2.276,2.276,2.285,2.302,2.319,2.337,2.363,2.391,2.4,2.428,2.447,2.467,2.477,2.497,2.497,2.517,2.527,2.548,2.569,2.58,2.591,2.613,2.624,2.635,2.646,2.658,2.681,2.692,2.716,2.74,2.752,2.764,2.802,2.827,2.88,2.949,3.035,3.143,3.225,3.311,3.402,3.479,3.538,3.579,3.6,3.621,3.642,3.642,3.664,3.642,3.664,3.664,3.664,3.664,3.664,3.642,3.642,3.642,3.642,3.664,3.686,3.73,3.776,3.822,3.87,3.919,3.944,3.969,4.021,4.047,4.074,4.156,4.212,4.3,4.392,4.423,4.455,4.52,4.553,4.587,4.587,4.621,4.656,4.691,4.691,4.691,4.727,4.727,4.727,4.763,4.763,4.763,4.763,4.8,4.838,4.838,4.914,4.954,5.034,5.075,5.117,5.16,5.203,5.16,5.203,5.16,5.117,5.075,5.034,5.075,5.075,5.117,5.16,5.203,5.203,5.248,5.292,5.292,5.338,5.338,5.338,5.338,5.338,5.338,5.338,5.338,5.338,5.292,5.292,5.248,5.248,5.16,5.117,5.075,5.034,4.994,4.954,4.954,4.914,4.914,4.954,4.994,5.075,5.075,5.16,5.248,5.292,5.384,5.432,5.529,5.529,5.578,5.578,5.629,5.629,5.629,5.629,5.578,5.578,5.578,5.48,5.48,5.48,5.48,5.432,5.432,5.432,5.48,5.48,5.48,5.48,5.48,5.529,5.529,5.529,5.578,5.578,5.578,5.629,5.629,5.629,5.629,5.629,5.629,5.578,5.529,5.529,5.529,5.48,5.432,5.432,5.432,5.432,5.384,5.384,5.384,5.384,5.384,5.432,5.432,5.432,5.432,5.432,5.432,5.432,5.432,5.432,5.432,5.432,5.432,5.48,5.48,5.432,5.432,5.432,5.432,5.384,5.384,5.384,5.384,5.338,5.292,5.292,5.292,5.292,5.292,5.292,5.292,5.292,5.292,5.292,5.292,5.248,5.203,5.16,5.075,5.034,4.954,4.914,4.838,4.8,4.763,4.763,4.727,4.727,4.691,4.621,4.587,4.52,4.455,4.423,4.423,4.392,4.33,4.241,4.212,4.184,4.156,4.128,4.074,3.969,3.894,3.822,3.822,3.776,3.753,3.686,3.664,3.642,3.642,3.642,3.621,3.621,3.621,3.6,3.579,3.579,3.559,3.559,3.538,3.518,3.518,3.479,3.459,3.44,3.421,3.384,3.347,3.311,3.276,3.225,3.175,3.127,3.081,3.021,2.963,2.907,2.853,2.802,2.764,2.728,2.692,2.658,2.635,2.613,2.602,2.591,2.58,2.58,2.569,2.58,2.569,2.569,2.569,2.559,2.548,2.527,2.497,2.477,2.447,2.409,2.382,2.354,2.328,2.31,2.293,2.276,2.268,2.26,2.252,2.244,2.227,2.219,2.211,2.204,2.196,2.18,2.173,2.165,2.15,2.143,2.128,2.121,2.106,2.092,2.078,2.064,2.057,2.037,2.024,2.01,1.991,1.972,1.96,1.947,1.935,1.917,1.905,1.894,1.888,1.876,1.871,1.859,1.854,1.843,1.837,1.827,1.821,1.811,1.8,1.79,1.779,1.769,1.759,1.754,1.744,1.734,1.725,1.72,1.715,1.711,1.706,1.701,1.696,1.692,1.687,1.683,1.678,1.669,1.66,1.656,1.642,1.634,1.621,1.613,1.6,1.592,1.58,1.572,1.564,1.556,1.552,1.548,1.544,1.54,1.536,1.533,1.529,1.529,1.529,1.521,1.518,1.514,1.507,1.503,1.492,1.485,1.474,1.467,1.457,1.45,1.447,1.44,1.433,1.43,1.427,1.423,1.42,1.417,1.41,1.404,1.398,1.391,1.382,1.376,1.37,1.364,1.358,1.355,1.352,1.349,1.346,1.343,1.34,1.34,1.337,1.334,1.332,1.323,1.32,1.315,1.306,1.298,1.29,1.282,1.277,1.269,1.261,1.256,1.253,1.251,1.246,1.243,1.241,1.238,1.236,1.231,1.226,1.221,1.217,1.212,1.207,1.205,1.2,1.195,1.193,1.188,1.184,1.182,1.179,1.177,1.175,1.171,1.168,1.164,1.162,1.157,1.153,1.149,1.145,1.138,1.134,1.128,1.124,1.12,1.114,1.112,1.108,1.106,1.104
2.037,2.044,2.05,2.057,2.064,2.078,2.085,2.099,2.113,2.128,2.143,2.158,2.173,2.188,2.204,2.211,2.227,2.235,2.252,2.26,2.26,2.268,2.268,2.276,2.276,2.276,2.285,2.293,2.302,2.319,2.345,2.363,2.382,2.409,2.428,2.438,2.447,2.477,2.487,2.497,2.517,2.538,2.559,2.58,2.591,2.602,2.613,2.635,2.635,2.658,2.669,2.681,2.704,2.728,2.74,2.764,2.789,2.827,2.88,2.963,3.065,3.192,3.294,3.384,3.459,3.559,3.6,3.642,3.642,3.664,3.664,3.708,3.708,3.73,3.73,3.753,3.73,3.73,3.73,3.708,3.708,3.708,3.73,3.73,3.753,3.776,3.822,3.87,3.919,3.969,3.995,4.021,4.074,4.101,4.128,4.212,4.241,4.33,4.392,4.423,4.487,4.52,4.553,4.587,4.587,4.621,4.656,4.656,4.691,4.691,4.727,4.727,4.727,4.763,4.727,4.727,4.763,4.763,4.8,4.838,4.838,4.914,4.954,4.994,5.034,5.034,5.075,5.075,5.075,5.034,4.994,4.994,4.994,4.994,5.034,5.075,5.117,5.16,5.203,5.248,5.292,5.338,5.338,5.338,5.384,5.384,5.384,5.384,5.384,5.338,5.338,5.338,5.338,5.292,5.292,5.203,5.16,5.117,5.034,5.034,4.994,4.954,4.954,4.954,4.954,5.034,5.075,5.16,5.203,5.292,5.384,5.432,5.529,5.629,5.629,5.681,5.733,5.733,5.733,5.733,5.733,5.681,5.681,5.629,5.578,5.578,5.529,5.529,5.48,5.48,5.48,5.48,5.48,5.529,5.529,5.578,5.578,5.578,5.629,5.629,5.629,5.681,5.681,5.681,5.681,5.681,5.681,5.681,5.629,5.629,5.578,5.529,5.529,5.529,5.48,5.48,5.48,5.432,5.432,5.432,5.432,5.432,5.432,5.48,5.48,5.48,5.48,5.529,5.529,5.529,5.529,5.529,5.529,5.529,5.529,5.529,5.529,5.529,5.529,5.48,5.48,5.48,5.48,5.48,5.432,5.384,5.384,5.384,5.384,5.338,5.338,5.384,5.384,5.384,5.384,5.338,5.292,5.203,5.16,5.075,4.994,4.954,4.914,4.838,4.838,4.8,4.763,4.763,4.727,4.691,4.621,4.587,4.52,4.455,4.423,4.392,4.361,4.3,4.212,4.184,4.156,4.128,4.101,4.047,3.944,3.894,3.822,3.822,3.799,3.776,3.708,3.686,3.664,3.642,3.642,3.642,3.621,3.621,3.6,3.6,3.579,3.579,3.559,3.559,3.538,3.518,3.498,3.479,3.459,3.44,3.402,3.365,3.311,3.276,3.225,3.175,3.127,3.065,3.021,2.949,2.893,2.853,2.802,2.752,2.716,2.681,2.646,2.624,2.602,2.602,2.591,2.58,2.569,2.569,2.569,2.569,2.569,2.569,2.559,2.548,2.527,2.507,2.477,2.457,2.419,2.391,2.363,2.328,2.31,2.293,2.285,2.268,2.26,2.252,2.244,2.235,2.227,2.219,2.204,2.196,2.18,2.173,2.158,2.15,2.143,2.128,2.113,2.106,2.092,2.078,2.064,2.057,2.037,2.024,2.01,1.997,1.985,1.966,1.953,1.935,1.923,1.911,1.899,1.888,1.882,1.871,1.859,1.854,1.843,1.837,1.827,1.821,1.811,1.8,1.79,1.784,1.774,1.764,1.754,1.749,1.739,1.734,1.725,1.72,1.711,1.706,1.701,1.696,1.692,1.687,1.683,1.678,1.674,1.665,1.656,1.647,1.634,1.625,1.613,1.604,1.592,1.584,1.572,1.564,1.56,1.552,1.548,1.544,1.54,1.536,1.533,1.529,1.529,1.525,1.521,1.518,1.514,1.507,1.503,1.492,1.485,1.478,1.467,1.46,1.454,1.447,1.443,1.437,1.433,1.43,1.427,1.423,1.417,1.41,1.404,1.398,1.391,1.385,1.379,1.373,1.367,1.361,1.358,1.355,1.349,1.346,1.343,1.343,1.34,1.337,1.334,1.332,1.326,1.32,1.315,1.306,1.298,1.29,1.282,1.274,1.266,1.261,1.256,1.251,1.248,1.243,1.243,1.241,1.238,1.236,1.231,1.229,1.224,1.219,1.214,1.209,1.207,1.202,1.198,1.193,1.191,1.186,1.184,1.179,1.177,1.175,1.173,1.168,1.166,1.162,1.157,1.153,1.151,1.145,1.14,1.134,1.13,1.124,1.12,1.116,1.112,1.108,1.106,1.104
2.037,2.044,2.05,2.057,2.071,2.078,2.092,2.106,2.121,2.135,2.15,2.165,2.188,2.204,2.219,2.235,2.244,2.252,2.26,2.276,2.276,2.276,2.276,2.285,2.285,2.285,2.293,2.302,2.31,2.328,2.345,2.372,2.382,2.4,2.419,2.428,2.447,2.467,2.487,2.487,2.507,2.527,2.548,2.569,2.58,2.602,2.613,2.624,2.624,2.646,2.669,2.681,2.692,2.716,2.74,2.752,2.789,2.827,2.893,2.991,3.112,0,3.329,3.44,3.538,3.621,3.664,3.686,3.708,3.708,3.708,3.73,3.753,3.776,3.799,3.822,3.846,3.846,3.822,3.799,3.799,3.776,3.799,3.799,3.822,3.846,3.894,3.919,3.995,4.021,4.074,4.101,4.128,4.156,4.156,4.241,4.3,4.361,4.423,4.455,4.487,4.553,4.553,4.587,4.587,4.621,4.656,4.656,4.691,4.691,4.691,4.727,4.727,4.727,4.727,4.727,4.727,4.727,4.763,4.763,4.8,4.838,4.914,4.954,4.954,4.994,4.994,4.994,4.994,4.954,4.954,4.914,4.914,4.954,4.994,5.034,5.075,5.16,5.248,5.292,5.292,5.338,5.384,5.384,5.384,5.384,5.384,5.384,5.384,5.384,5.384,5.384,5.384,5.384,5.338,5.292,5.203,5.16,5.117,5.075,5.034,4.994,4.994,4.994,5.034,5.075,5.117,5.203,5.292,5.384,5.48,5.529,5.629,5.733,5.787,5.842,5.842,5.842,5.842,5.842,5.842,5.787,5.787,5.733,5.681,5.629,5.578,5.578,5.529,5.529,5.529,5.529,5.529,5.578,5.578,5.578,5.578,5.629,5.629,5.681,5.681,5.733,5.733,5.733,5.733,5.733,5.733,5.733,5.681,5.681,5.629,5.629,5.578,5.529,5.529,5.529,5.529,5.529,5.529,5.529,5.529,5.529,5.529,5.529,5.529,5.529,5.529,5.578,5.578,5.578,5.578,5.578,5.578,5.578,5.578,5.578,5.578,5.578,5.629,5.578,5.578,5.578,5.578,5.529,5.529,5.48,5.48,5.432,5.432,5.432,5.432,5.432,5.432,5.432,5.384,5.338,5.338,5.248,5.16,5.075,4.994,4.954,4.914,4.838,4.838,4.8,4.763,4.763,4.727,4.727,4.621,4.553,4.52,4.455,4.423,4.392,4.33,4.3,4.212,4.184,4.156,4.128,4.101,4.047,3.969,3.894,3.846,3.846,3.846,3.799,3.753,3.708,3.686,3.664,3.642,3.642,3.621,3.621,3.6,3.6,3.6,3.579,3.579,3.559,3.559,3.538,3.518,3.479,3.459,3.421,3.384,3.365,3.311,3.276,3.225,3.159,3.112,3.065,2.991,2.949,2.893,2.84,2.789,2.752,2.704,2.669,2.646,2.613,2.602,2.591,2.58,2.569,2.569,2.569,2.569,2.559,2.569,2.559,2.559,2.548,2.527,2.517,2.487,2.457,2.438,2.4,2.372,2.337,2.319,2.302,2.285,2.268,2.26,2.252,2.244,2.235,2.227,2.219,2.204,2.196,2.188,2.173,2.158,2.15,2.143,2.128,2.113,2.099,2.085,2.078,2.064,2.05,2.037,2.024,2.01,1.997,1.985,1.972,1.96,1.941,1.929,1.917,1.905,1.894,1.882,1.871,1.859,1.854,1.843,1.837,1.827,1.816,1.811,1.8,1.795,1.784,1.779,1.769,1.759,1.754,1.744,1.734,1.73,1.725,1.715,1.711,1.701,1.696,1.692,1.687,1.683,1.678,1.674,1.669,1.66,1.651,1.638,1.629,1.617,1.608,1.6,1.588,1.58,1.568,1.564,1.556,1.548,1.544,1.54,1.536,1.533,1.529,1.525,1.525,1.521,1.514,1.514,1.507,1.499,1.492,1.485,1.478,1.467,1.46,1.454,1.45,1.443,1.44,1.437,1.433,1.43,1.427,1.42,1.414,1.407,1.401,1.395,1.388,1.382,1.376,1.37,1.364,1.361,1.355,1.352,1.349,1.346,1.343,1.34,1.337,1.334,1.329,1.323,1.32,1.312,1.304,1.295,1.287,1.279,1.274,1.266,1.261,1.256,1.251,1.246,1.243,1.243,1.241,1.238,1.236,1.233,1.229,1.226,1.221,1.219,1.214,1.207,1.202,1.198,1.195,1.191,1.186,1.184,1.182,1.177,1.175,1.173,1.168,1.166,1.162,1.16,1.155,1.149,1.145,1.138,1.134,1.13,1.124,1.12,1.116,1.114,1.11,1.108,1.104
2.037,2.044,2.05,2.064,2.071,2.085,2.106,2.113,2.135,2.15,2.165,2.188,2.204,2.219,2.235,2.244,2.26,2.268,2.276,2.293,2.293,2.293,2.293,2.302,2.302,2.293,2.302,2.31,2.319,2.328,2.345,2.363,2.382,2.4,2.409,2.428,2.447,2.467,2.467,2.487,2.497,2.527,2.548,2.58,2.591,2.602,2.613,2.624,2.635,2.646,2.658,2.669,2.681,2.704,2.728,2.74,2.764,2.789,2.88,2.963,0,0,3.311,3.421,3.518,3.621,3.686,3.708,3.708,3.73,3.73,3.753,3.799,3.799,3.846,3.87,3.919,3.919,3.919,3.894,3.87,3.87,3.87,3.87,3.894,3.919,3.944,3.995,4.047,4.101,4.128,4.156,4.184,4.184,4.212,4.27,4.33,4.361,4.423,4.455,4.487,4.52,4.553,4.553,4.587,4.621,4.621,4.656,4.656,4.656,4.691,4.691,4.691,4.727,4.727,4.691,4.691,4.691,4.727,4.727,4.727,4.8,4.838,4.876,4.914,4.914,4.914,4.914,4.914,4.914,4.876,4.876,4.876,4.914,4.954,4.994,5.117,5.16,5.248,5.292,5.338,5.384,5.384,5.432,5.432,5.432,5.432,5.48,5.48,5.48,5.48,5.48,5.432,5.432,5.384,5.338,5.292,5.248,5.203,5.117,5.075,5.034,5.034,4.994,5.034,5.117,5.16,5.203,5.292,5.432,5.529,5.629,5.733,5.842,5.897,5.954,5.954,5.954,5.954,5.954,5.954,5.897,5.842,5.787,5.787,5.681,5.681,5.629,5.578,5.578,5.578,5.578,5.578,5.578,5.578,5.629,5.629,5.681,5.681,5.733,5.733,5.733,5.787,5.787,5.787,5.787,5.787,5.787,5.733,5.681,5.681,5.681,5.629,5.578,5.578,5.578,5.578,5.578,5.578,5.578,5.578,5.578,5.578,5.578,5.578,5.578,5.578,5.629,5.629,5.629,5.629,5.629,5.681,5.681,5.681,5.681,5.681,5.681,5.681,5.681,5.681,5.681,5.681,5.629,5.629,5.578,5.578,5.529,5.529,5.529,5.529,5.529,5.529,5.48,5.432,5.384,5.338,5.248,5.16,5.075,5.034,4.954,4.914,4.876,4.838,4.8,4.8,4.763,4.763,4.727,4.621,4.553,4.52,4.487,4.423,4.392,4.33,4.3,4.212,4.156,4.128,4.101,4.074,4.021,3.944,3.894,3.846,3.846,3.846,3.822,3.753,3.708,3.664,3.664,3.642,3.621,3.621,3.6,3.6,3.6,3.579,3.579,3.559,3.538,3.518,3.498,3.479,3.459,3.421,3.402,3.365,3.311,3.276,3.225,3.192,3.143,3.096,3.035,2.977,2.921,2.867,2.827,2.777,2.74,2.704,2.669,2.635,2.624,2.602,2.591,2.58,2.569,2.569,2.559,2.569,2.559,2.559,2.559,2.559,2.548,2.538,2.527,2.497,2.467,2.447,2.409,2.382,2.354,2.328,2.302,2.285,2.276,2.26,2.252,2.244,2.235,2.227,2.219,2.211,2.204,2.188,2.173,2.165,2.15,2.135,2.121,2.106,2.099,2.085,2.071,2.064,2.05,2.037,2.03,2.017,2.004,1.991,1.978,1.96,1.947,1.935,1.917,1.905,1.894,1.876,1.865,1.859,1.854,1.843,1.832,1.827,1.816,1.811,1.8,1.795,1.79,1.779,1.774,1.769,1.759,1.749,1.744,1.734,1.73,1.72,1.715,1.706,1.701,1.696,1.692,1.687,1.683,1.674,1.669,1.66,1.651,1.642,1.634,1.625,1.613,1.604,1.592,1.584,1.572,1.564,1.56,1.552,1.548,1.54,1.536,1.529,1.529,1.525,1.521,1.518,1.514,1.51,1.503,1.499,1.492,1.485,1.478,1.471,1.464,1.457,1.454,1.447,1.44,1.437,1.433,1.43,1.427,1.423,1.417,1.41,1.404,1.398,1.391,1.385,1.379,1.373,1.367,1.364,1.358,1.355,1.349,1.346,1.343,1.34,1.337,1.332,1.326,1.323,1.315,1.309,1.301,1.293,1.285,1.277,1.271,1.266,1.259,1.256,1.251,1.246,1.246,1.243,1.241,1.238,1.236,1.233,1.231,1.226,1.224,1.219,1.214,1.209,1.202,1.198,1.195,1.191,1.186,1.184,1.182,1.179,1.175,1.173,1.168,1.166,1.162,1.16,1.155,1.149,1.145,1.14,1.134,1.13,1.126,1.122,1.116,1.114,1.11,1.108,1.106
2.037,2.044,2.057,2.071,2.078,2.099,2.113,2.128,2.143,2.165,2.18,2.204,2.219,2.235,2.252,2.268,2.276,2.285,2.302,2.31,2.31,2.319,2.319,2.319,2.319,2.319,2.328,2.328,2.337,2.345,2.363,2.382,2.4,2.409,2.428,2.428,2.447,2.467,2.477,2.497,2.507,2.538,2.559,2.591,2.602,2.613,2.624,2.635,2.635,2.646,2.658,2.669,2.669,2.692,2.704,2.728,2.74,2.777,2.867,2.963,3.05,0,3.276,3.384,3.498,3.621,3.686,3.686,3.708,3.73,3.73,3.776,3.799,3.822,3.87,3.919,3.944,3.969,3.969,3.969,3.944,3.944,3.944,3.944,3.944,3.969,3.995,4.021,4.074,4.101,4.128,4.156,4.184,4.184,4.212,4.27,4.3,4.361,4.392,4.455,4.455,4.52,4.52,4.553,4.553,4.587,4.587,4.621,4.621,4.656,4.656,4.691,4.691,4.691,4.691,4.691,4.656,4.691,4.691,4.691,4.727,4.727,4.838,4.876,4.876,4.876,4.876,4.876,4.876,4.838,4.838,4.8,4.8,4.876,4.914,4.994,5.075,5.203,5.248,5.338,5.384,5.432,5.432,5.432,5.48,5.48,5.529,5.529,5.529,5.529,5.529,5.48,5.48,5.48,5.48,5.384,5.338,5.292,5.248,5.203,5.16,5.075,5.034,5.075,5.075,5.117,5.203,5.248,5.338,5.48,5.578,5.681,5.787,5.897,5.954,6.012,6.012,6.071,6.071,6.071,6.012,6.012,5.954,5.897,5.842,5.733,5.733,5.681,5.629,5.629,5.629,5.629,5.629,5.629,5.629,5.629,5.629,5.681,5.733,5.733,5.787,5.787,5.787,5.787,5.787,5.842,5.842,5.842,5.787,5.733,5.733,5.681,5.681,5.629,5.629,5.629,5.629,5.629,5.629,5.629,5.629,5.629,5.629,5.629,5.629,5.629,5.629,5.681,5.681,5.681,5.681,5.733,5.733,5.733,5.733,5.733,5.733,5.787,5.787,5.787,5.787,5.733,5.733,5.733,5.733,5.681,5.681,5.681,5.629,5.629,5.578,5.578,5.578,5.529,5.48,5.432,5.338,5.248,5.203,5.075,5.034,4.954,4.914,4.876,4.838,4.838,4.8,4.8,4.763,4.727,4.621,4.553,4.52,4.487,4.423,4.392,4.33,4.27,4.212,4.156,4.128,4.101,4.047,3.995,3.944,3.894,3.822,3.846,3.846,3.822,3.753,3.686,3.664,3.642,3.621,3.621,3.6,3.6,3.6,3.579,3.579,3.559,3.538,3.518,3.498,3.479,3.44,3.421,3.384,3.347,3.311,3.276,3.242,3.208,3.159,3.112,3.065,3.006,2.949,2.907,2.853,2.802,2.764,2.728,2.692,2.669,2.646,2.624,2.602,2.602,2.58,2.58,2.569,2.569,2.569,2.569,2.559,2.569,2.559,2.548,2.548,2.538,2.517,2.487,2.457,2.428,2.391,2.363,2.337,2.31,2.293,2.276,2.26,2.252,2.252,2.244,2.235,2.227,2.219,2.204,2.196,2.18,2.165,2.158,2.135,2.121,2.106,2.099,2.085,2.071,2.064,2.057,2.044,2.03,2.017,2.01,1.997,1.985,1.966,1.953,1.935,1.923,1.905,1.888,1.876,1.865,1.854,1.843,1.837,1.827,1.821,1.816,1.811,1.8,1.795,1.79,1.784,1.779,1.769,1.764,1.754,1.749,1.739,1.73,1.725,1.715,1.711,1.701,1.696,1.692,1.687,1.683,1.678,1.669,1.665,1.656,1.647,1.638,1.629,1.621,1.613,1.6,1.592,1.58,1.572,1.564,1.556,1.548,1.54,1.536,1.529,1.525,1.525,1.521,1.518,1.514,1.507,1.503,1.496,1.492,1.485,1.478,1.471,1.464,1.46,1.454,1.45,1.443,1.44,1.437,1.433,1.43,1.423,1.42,1.414,1.407,1.401,1.395,1.388,1.382,1.373,1.367,1.364,1.358,1.355,1.349,1.346,1.343,1.34,1.334,1.329,1.326,1.323,1.315,1.306,1.301,1.293,1.287,1.279,1.274,1.266,1.261,1.256,1.253,1.248,1.246,1.243,1.243,1.241,1.238,1.236,1.231,1.229,1.224,1.219,1.214,1.209,1.202,1.198,1.193,1.191,1.186,1.182,1.179,1.177,1.175,1.173,1.168,1.166,1.162,1.157,1.155,1.149,1.145,1.138,1.134,1.13,1.126,1.12,1.116,1.114,1.11,1.108,1.106
2.037,2.044,2.057,2.071,2.085,2.099,2.113,2.135,2.158,2.173,2.188,2.211,2.227,2.244,2.26,2.276,2.285,2.302,2.31,2.319,2.328,2.337,2.337,2.337,2.337,2.345,2.345,2.354,2.363,2.372,2.382,2.4,2.409,2.419,2.428,2.438,2.457,2.477,2.487,2.507,2.527,2.548,2.58,2.602,2.613,2.624,2.635,2.646,2.646,2.646,2.658,2.658,2.669,2.692,2.704,2.728,2.74,2.777,2.867,2.949,3.035,0,3.242,3.365,3.479,3.6,3.664,3.686,3.708,3.708,3.73,3.776,3.799,3.822,3.87,3.919,3.969,3.995,4.021,3.995,3.995,3.995,3.995,3.995,3.995,3.995,4.021,4.047,4.101,4.128,4.156,4.156,4.184,4.156,4.212,4.27,4.3,4.361,4.392,4.423,4.455,4.487,4.487,4.52,4.52,4.553,4.553,4.587,4.587,4.621,4.621,4.656,4.656,4.691,4.691,4.691,4.691,4.691,4.656,4.691,4.656,4.727,4.763,4.838,4.838,4.876,4.876,4.838,4.838,4.838,4.8,4.8,4.8,4.876,4.914,4.994,5.075,5.16,5.292,5.384,5.384,5.48,5.48,5.529,5.529,5.529,5.529,5.529,5.529,5.578,5.578,5.578,5.578,5.578,5.529,5.48,5.432,5.338,5.338,5.248,5.203,5.16,5.117,5.075,5.117,5.16,5.248,5.292,5.384,5.529,5.629,5.733,5.842,5.897,6.012,6.071,6.131,6.131,6.131,6.131,6.131,6.071,6.012,5.954,5.897,5.842,5.787,5.787,5.733,5.681,5.681,5.681,5.681,5.681,5.681,5.681,5.681,5.681,5.681,5.733,5.787,5.787,5.787,5.842,5.842,5.842,5.842,5.842,5.787,5.733,5.733,5.733,5.681,5.629,5.629,5.629,5.681,5.681,5.681,5.681,5.681,5.681,5.733,5.733,5.681,5.681,5.681,5.733,5.733,5.733,5.733,5.787,5.787,5.787,5.787,5.842,5.842,5.897,5.842,5.842,5.897,5.897,5.897,5.897,5.842,5.842,5.787,5.787,5.733,5.733,5.681,5.681,5.681,5.578,5.529,5.432,5.384,5.248,5.203,5.117,5.034,4.954,4.914,4.876,4.838,4.838,4.838,4.8,4.8,4.727,4.656,4.587,4.553,4.487,4.455,4.392,4.33,4.3,4.212,4.156,4.128,4.074,4.047,3.995,3.919,3.894,3.822,3.822,3.822,3.799,3.73,3.686,3.642,3.642,3.621,3.6,3.579,3.579,3.579,3.559,3.559,3.538,3.498,3.479,3.459,3.421,3.384,3.347,3.329,3.294,3.259,3.225,3.192,3.159,3.112,3.065,3.021,2.977,2.921,2.88,2.84,2.789,2.764,2.728,2.704,2.669,2.646,2.624,2.613,2.602,2.591,2.58,2.569,2.569,2.569,2.569,2.569,2.569,2.559,2.559,2.548,2.538,2.527,2.507,2.467,2.438,2.409,2.372,2.354,2.319,2.302,2.276,2.268,2.26,2.252,2.244,2.235,2.227,2.219,2.211,2.196,2.18,2.173,2.158,2.135,2.121,2.106,2.099,2.085,2.071,2.064,2.057,2.044,2.037,2.024,2.017,1.997,1.985,1.972,1.953,1.935,1.917,1.899,1.882,1.871,1.859,1.848,1.837,1.827,1.821,1.816,1.811,1.805,1.8,1.795,1.79,1.784,1.779,1.774,1.769,1.759,1.749,1.739,1.734,1.725,1.715,1.711,1.701,1.696,1.692,1.687,1.683,1.678,1.674,1.669,1.66,1.651,1.642,1.638,1.629,1.621,1.608,1.596,1.588,1.576,1.568,1.56,1.552,1.544,1.536,1.533,1.525,1.521,1.521,1.518,1.514,1.507,1.503,1.496,1.492,1.485,1.478,1.474,1.464,1.46,1.457,1.45,1.447,1.443,1.437,1.433,1.43,1.427,1.42,1.414,1.407,1.401,1.395,1.388,1.382,1.376,1.367,1.364,1.358,1.355,1.349,1.346,1.34,1.337,1.334,1.329,1.326,1.32,1.315,1.309,1.301,1.295,1.287,1.279,1.277,1.269,1.264,1.259,1.253,1.251,1.248,1.246,1.243,1.243,1.241,1.236,1.233,1.229,1.224,1.219,1.214,1.209,1.202,1.198,1.193,1.188,1.186,1.182,1.179,1.177,1.175,1.171,1.168,1.164,1.162,1.157,1.153,1.149,1.145,1.138,1.134,1.13,1.126,1.122,1.116,1.114,1.112,1.11,1.108
2.037,2.05,2.064,2.071,2.092,2.106,2.128,2.15,2.165,2.18,2.204,2.219,2.244,2.26,2.276,2.293,2.302,2.319,2.328,2.337,2.354,2.363,2.363,2.363,2.363,2.372,2.372,2.382,2.391,2.391,2.409,2.419,2.428,2.438,2.447,2.447,2.467,2.477,2.497,2.517,2.538,2.548,2.58,2.602,2.624,2.635,2.635,2.646,2.658,2.658,2.669,2.681,2.692,2.716,2.728,2.752,2.777,2.802,2.867,2.963,3.021,3.127,3.225,3.347,3.459,3.579,3.642,3.642,3.686,3.686,3.73,3.753,3.776,3.822,3.87,3.919,3.969,3.995,4.021,4.021,4.021,4.021,4.021,4.021,4.021,4.021,4.047,4.074,4.101,4.101,4.128,4.128,4.156,4.156,4.184,4.212,4.27,4.361,4.392,4.423,4.455,4.455,4.487,4.487,4.487,4.52,4.52,4.553,4.587,4.587,4.587,4.621,4.656,4.656,4.656,4.656,4.656,4.656,4.691,4.656,4.656,4.691,4.763,4.8,4.838,4.876,4.876,4.838,4.838,4.838,4.876,4.838,4.838,4.876,4.954,5.034,5.16,5.248,5.338,5.384,5.432,5.48,5.529,5.529,5.529,5.578,5.578,5.629,5.629,5.629,5.629,5.629,5.629,5.629,5.629,5.578,5.48,5.48,5.384,5.338,5.292,5.248,5.203,5.16,5.16,5.203,5.292,5.338,5.432,5.529,5.629,5.733,5.842,6.012,6.071,6.131,6.131,6.255,6.192,6.255,6.192,6.192,6.131,6.071,6.012,5.954,5.897,5.842,5.787,5.787,5.733,5.681,5.681,5.681,5.681,5.681,5.681,5.681,5.733,5.733,5.787,5.787,5.787,5.842,5.842,5.787,5.787,5.787,5.787,5.733,5.733,5.733,5.681,5.681,5.681,5.681,5.733,5.733,5.733,5.733,5.787,5.787,5.787,5.787,5.787,5.787,5.787,5.787,5.787,5.842,5.842,5.842,5.842,5.897,5.897,5.954,5.954,5.954,5.954,6.012,6.012,6.012,5.954,5.954,5.954,5.954,5.954,5.897,5.842,5.842,5.787,5.733,5.733,5.629,5.578,5.48,5.384,5.292,5.203,5.117,5.034,4.954,4.914,4.876,4.876,4.876,4.838,4.8,4.8,4.727,4.656,4.587,4.553,4.52,4.455,4.423,4.361,4.33,4.212,4.184,4.128,4.101,4.047,3.995,3.919,3.87,3.799,3.822,3.822,3.799,3.73,3.686,3.642,3.6,3.579,3.579,3.559,3.559,3.538,3.538,3.538,3.518,3.479,3.44,3.421,3.384,3.347,3.311,3.276,3.242,3.208,3.175,3.143,3.112,3.081,3.035,2.991,2.949,2.907,2.853,2.815,2.777,2.752,2.716,2.692,2.669,2.658,2.635,2.624,2.613,2.602,2.591,2.58,2.58,2.569,2.569,2.569,2.569,2.559,2.559,2.559,2.548,2.538,2.517,2.487,2.457,2.419,2.391,2.363,2.337,2.302,2.285,2.268,2.26,2.252,2.244,2.235,2.227,2.219,2.211,2.196,2.188,2.173,2.158,2.135,2.121,2.106,2.099,2.085,2.071,2.064,2.057,2.05,2.037,2.03,2.017,2.004,1.985,1.972,1.953,1.935,1.917,1.899,1.888,1.871,1.854,1.843,1.832,1.821,1.816,1.811,1.805,1.8,1.795,1.79,1.79,1.784,1.779,1.774,1.769,1.759,1.754,1.744,1.734,1.725,1.72,1.711,1.701,1.696,1.692,1.687,1.683,1.678,1.674,1.669,1.665,1.656,1.651,1.642,1.634,1.625,1.617,1.604,1.592,1.58,1.572,1.56,1.552,1.544,1.536,1.533,1.529,1.525,1.521,1.518,1.514,1.507,1.503,1.499,1.492,1.485,1.478,1.474,1.467,1.46,1.457,1.454,1.447,1.443,1.437,1.433,1.43,1.427,1.42,1.414,1.407,1.401,1.395,1.388,1.382,1.373,1.367,1.364,1.358,1.352,1.349,1.343,1.34,1.337,1.334,1.329,1.326,1.32,1.315,1.306,1.301,1.295,1.287,1.282,1.277,1.271,1.266,1.261,1.259,1.253,1.251,1.248,1.246,1.243,1.241,1.238,1.233,1.229,1.224,1.219,1.212,1.207,1.202,1.198,1.193,1.188,1.184,1.179,1.177,1.175,1.173,1.171,1.166,1.164,1.16,1.157,1.153,1.149,1.142,1.138,1.134,1.13,1.126,1.122,1.118,1.114,1.112,1.11,1.108
2.037,2.05,2.064,2.078,2.092,2.113,2.135,2.158,2.173,2.188,2.211,2.227,2.244,2.26,2.276,2.293,2.31,2.319,2.337,2.354,2.363,2.372,2.391,2.391,2.4,2.4,2.4,2.409,2.409,2.419,2.428,2.438,2.447,2.457,2.457,2.457,2.477,2.487,2.507,2.527,2.538,2.559,2.58,2.613,2.635,2.646,2.658,2.669,2.681,2.692,2.716,2.728,2.74,2.764,2.777,2.802,2.815,2.84,2.907,2.991,3.05,3.127,3.225,3.329,3.459,3.559,3.6,3.642,3.642,3.664,3.708,3.73,3.776,3.799,3.846,3.919,3.969,3.995,4.021,4.021,4.047,4.047,4.047,4.021,4.021,4.021,4.047,4.074,4.074,4.101,4.101,4.128,4.128,4.128,4.156,4.212,4.27,4.33,4.361,4.392,4.423,4.423,4.455,4.455,4.455,4.487,4.487,4.52,4.553,4.52,4.553,4.587,4.621,4.621,4.621,4.621,4.656,4.656,4.656,4.656,4.656,4.691,4.763,4.8,4.838,4.876,4.876,4.876,4.876,4.876,4.914,4.914,4.914,4.994,4.994,5.117,5.203,5.292,5.384,5.48,5.48,5.529,5.529,5.578,5.629,5.629,5.629,5.629,5.681,5.681,5.681,5.681,5.733,5.681,5.681,5.681,5.578,5.578,5.48,5.48,5.384,5.384,5.292,5.248,5.248,5.338,5.384,5.384,5.48,5.578,5.681,5.787,5.842,6.012,6.071,6.192,6.255,6.318,6.318,6.318,6.318,6.255,6.255,6.192,6.131,6.071,5.954,5.954,5.897,5.842,5.787,5.733,5.733,5.733,5.681,5.681,5.681,5.681,5.681,5.733,5.733,5.733,5.733,5.733,5.733,5.787,5.733,5.733,5.733,5.733,5.733,5.733,5.681,5.681,5.733,5.787,5.842,5.842,5.787,5.842,5.842,5.842,5.842,5.842,5.842,5.842,5.842,5.842,5.842,5.897,5.897,5.897,5.954,5.954,5.954,6.012,6.012,6.071,6.071,6.071,6.131,6.131,6.131,6.131,6.131,6.071,6.071,6.012,5.954,5.954,5.897,5.842,5.787,5.681,5.578,5.48,5.384,5.292,5.203,5.117,5.034,4.994,4.914,4.876,4.876,4.876,4.838,4.838,4.8,4.763,4.691,4.621,4.587,4.553,4.487,4.423,4.392,4.361,4.27,4.184,4.128,4.101,4.047,3.995,3.894,3.822,3.776,3.776,3.799,3.776,3.73,3.664,3.621,3.6,3.559,3.538,3.538,3.498,3.518,3.498,3.479,3.44,3.421,3.384,3.347,3.311,3.276,3.259,3.225,3.192,3.159,3.143,3.112,3.081,3.05,3.006,2.977,2.935,2.88,2.84,2.802,2.777,2.752,2.716,2.692,2.681,2.658,2.646,2.635,2.624,2.613,2.602,2.591,2.58,2.58,2.58,2.569,2.569,2.569,2.559,2.559,2.559,2.548,2.527,2.497,2.467,2.438,2.409,2.372,2.345,2.319,2.293,2.268,2.26,2.252,2.244,2.235,2.227,2.219,2.211,2.204,2.188,2.173,2.158,2.143,2.128,2.113,2.099,2.085,2.078,2.064,2.057,2.05,2.044,2.03,2.017,2.004,1.991,1.972,1.953,1.935,1.917,1.899,1.882,1.859,1.848,1.832,1.821,1.816,1.805,1.8,1.8,1.795,1.79,1.79,1.784,1.784,1.779,1.774,1.769,1.759,1.749,1.744,1.734,1.725,1.72,1.711,1.701,1.696,1.692,1.687,1.683,1.678,1.674,1.669,1.665,1.66,1.656,1.647,1.638,1.629,1.621,1.608,1.596,1.584,1.572,1.564,1.556,1.544,1.54,1.533,1.529,1.525,1.521,1.518,1.514,1.507,1.503,1.496,1.492,1.485,1.478,1.471,1.467,1.46,1.457,1.454,1.447,1.44,1.437,1.433,1.427,1.423,1.417,1.41,1.404,1.401,1.395,1.385,1.379,1.373,1.367,1.361,1.358,1.352,1.346,1.343,1.34,1.337,1.332,1.329,1.323,1.317,1.312,1.306,1.301,1.295,1.29,1.285,1.277,1.274,1.269,1.264,1.259,1.256,1.253,1.248,1.246,1.243,1.241,1.238,1.233,1.229,1.224,1.217,1.212,1.205,1.2,1.193,1.188,1.186,1.182,1.179,1.177,1.175,1.173,1.168,1.166,1.164,1.16,1.157,1.153,1.149,1.142,1.138,1.134,1.13,1.126,1.122,1.118,1.116,1.112,1.11,1.108
2.037,2.05,2.064,2.085,2.099,2.121,2.143,2.158,2.173,2.188,2.211,2.227,2.244,2.26,2.276,2.293,2.31,2.328,2.337,2.363,2.382,2.4,2.409,2.419,2.428,2.428,2.438,2.447,2.447,2.447,2.457,2.467,2.477,2.477,2.477,2.487,2.497,2.507,2.517,2.538,2.559,2.569,2.591,2.635,2.646,2.669,2.681,2.692,2.716,2.728,2.752,2.764,2.789,2.802,2.827,2.84,2.853,2.88,2.935,3.006,3.065,3.127,3.225,3.311,3.421,3.538,3.579,3.6,3.621,3.664,3.686,3.708,3.753,3.799,3.846,3.894,3.944,3.969,3.995,3.995,4.021,4.047,4.047,4.047,4.047,4.047,4.047,4.074,4.074,4.074,4.101,4.101,4.128,4.101,4.156,4.212,4.241,4.3,4.361,4.392,4.392,4.423,4.423,4.423,4.423,4.455,4.455,4.487,4.487,4.487,4.52,4.553,4.587,4.587,4.587,4.621,4.621,4.656,4.656,4.656,4.656,4.691,4.727,4.8,4.838,4.876,4.914,4.914,4.914,4.954,4.994,4.994,4.994,5.034,5.075,5.16,5.248,5.338,5.432,5.48,5.529,5.529,5.578,5.629,5.629,5.629,5.681,5.681,5.733,5.733,5.787,5.787,5.787,5.787,5.787,5.733,5.681,5.681,5.629,5.578,5.529,5.48,5.432,5.384,5.384,5.432,5.432,5.48,5.529,5.629,5.733,5.787,5.897,5.954,6.071,6.192,6.255,6.318,6.384,6.384,6.384,6.384,6.318,6.318,6.255,6.131,6.131,6.012,5.954,5.897,5.897,5.787,5.787,5.733,5.733,5.733,5.681,5.681,5.681,5.681,5.681,5.681,5.681,5.681,5.681,5.681,5.681,5.681,5.681,5.629,5.681,5.681,5.681,5.681,5.787,5.842,5.842,5.897,5.897,5.954,5.954,5.954,5.954,5.897,5.954,5.897,5.897,5.897,5.897,5.897,5.954,5.954,6.012,6.012,6.012,6.071,6.131,6.131,6.131,6.192,6.192,6.255,6.255,6.255,6.255,6.192,6.192,6.131,6.071,6.071,5.954,5.954,5.842,5.733,5.629,5.48,5.384,5.292,5.203,5.117,5.034,4.994,4.954,4.914,4.914,4.876,4.876,4.876,4.838,4.763,4.691,4.656,4.587,4.553,4.52,4.455,4.423,4.361,4.27,4.212,4.156,4.101,4.021,3.969,3.894,3.799,3.753,3.753,3.753,3.753,3.708,3.664,3.621,3.579,3.538,3.518,3.479,3.479,3.44,3.44,3.402,3.365,3.347,3.311,3.276,3.259,3.225,3.192,3.175,3.143,3.127,3.096,3.081,3.05,3.021,2.991,2.963,2.921,2.88,2.84,2.802,2.777,2.752,2.728,2.716,2.692,2.681,2.669,2.646,2.635,2.624,2.613,2.602,2.591,2.591,2.58,2.569,2.58,2.569,2.559,2.559,2.559,2.548,2.527,2.497,2.477,2.447,2.409,2.382,2.345,2.319,2.293,2.276,2.26,2.252,2.244,2.235,2.235,2.219,2.211,2.204,2.188,2.173,2.158,2.143,2.128,2.113,2.099,2.092,2.078,2.071,2.064,2.05,2.044,2.03,2.024,2.01,1.991,1.972,1.953,1.935,1.917,1.894,1.876,1.854,1.843,1.827,1.821,1.805,1.8,1.795,1.79,1.79,1.784,1.779,1.779,1.779,1.774,1.774,1.769,1.759,1.749,1.744,1.734,1.725,1.72,1.711,1.701,1.696,1.692,1.687,1.683,1.678,1.674,1.674,1.665,1.66,1.656,1.647,1.638,1.634,1.621,1.608,1.596,1.588,1.576,1.564,1.556,1.548,1.54,1.536,1.529,1.525,1.521,1.518,1.514,1.507,1.503,1.496,1.488,1.485,1.478,1.471,1.464,1.46,1.454,1.45,1.443,1.44,1.437,1.43,1.423,1.42,1.414,1.407,1.401,1.395,1.388,1.382,1.376,1.37,1.364,1.358,1.355,1.349,1.346,1.34,1.337,1.334,1.329,1.326,1.323,1.317,1.312,1.306,1.304,1.298,1.29,1.285,1.282,1.277,1.271,1.266,1.261,1.256,1.253,1.251,1.248,1.243,1.241,1.238,1.231,1.226,1.221,1.217,1.209,1.205,1.198,1.191,1.188,1.184,1.182,1.179,1.177,1.175,1.171,1.168,1.166,1.164,1.16,1.157,1.153,1.149,1.142,1.138,1.134,1.13,1.126,1.122,1.118,1.116,1.114,1.112,1.108
2.037,2.05,2.071,2.085,2.106,2.121,2.143,2.158,2.173,2.196,2.204,2.227,2.244,2.26,2.276,2.293,2.31,2.328,2.345,2.363,2.391,2.409,2.428,2.447,2.447,2.457,2.467,2.467,2.477,2.477,2.487,2.487,2.487,2.497,2.497,2.507,2.507,2.527,2.538,2.548,2.559,2.58,2.602,2.635,2.669,2.681,2.704,2.716,2.74,2.764,2.789,2.802,2.827,2.84,2.853,2.867,2.88,2.907,2.977,3.035,3.081,3.143,3.225,3.311,3.421,3.518,3.559,3.579,3.6,3.621,3.664,3.686,3.73,3.776,3.822,3.87,3.894,3.944,3.969,3.969,3.995,4.021,4.021,4.021,4.021,4.021,4.047,4.047,4.074,4.074,4.074,4.074,4.101,4.101,4.128,4.184,4.241,4.3,4.361,4.392,4.392,4.423,4.423,4.423,4.423,4.423,4.455,4.455,4.487,4.487,4.487,4.52,4.553,4.587,4.587,4.621,4.621,4.656,4.691,4.691,4.691,4.691,4.763,4.838,4.876,4.954,4.954,4.954,4.994,4.994,5.034,5.075,5.075,5.117,5.16,5.203,5.292,5.338,5.432,5.48,5.529,5.578,5.578,5.629,5.629,5.681,5.733,5.733,5.787,5.787,5.787,5.842,5.842,5.842,5.842,5.842,5.787,5.787,5.733,5.681,5.681,5.578,5.529,5.48,5.48,5.48,5.48,5.529,5.529,5.578,5.681,5.787,5.897,5.954,6.071,6.131,6.255,6.318,6.318,6.45,6.45,6.45,6.45,6.384,6.318,6.255,6.192,6.131,6.071,6.012,5.954,5.897,5.842,5.787,5.787,5.733,5.733,5.681,5.681,5.681,5.681,5.629,5.629,5.629,5.629,5.629,5.578,5.578,5.578,5.578,5.578,5.629,5.629,5.733,5.787,5.897,5.954,5.954,5.954,5.954,6.012,6.012,6.012,6.012,5.954,5.954,5.954,5.954,5.954,5.954,5.954,6.012,6.012,6.012,6.071,6.131,6.131,6.192,6.192,6.255,6.318,6.318,6.318,6.318,6.318,6.318,6.255,6.255,6.192,6.131,6.071,6.012,5.897,5.733,5.629,5.529,5.432,5.338,5.203,5.117,5.075,4.994,4.954,4.914,4.914,4.876,4.876,4.876,4.838,4.763,4.691,4.656,4.621,4.587,4.52,4.487,4.455,4.423,4.33,4.241,4.184,4.128,4.047,3.995,3.894,3.799,3.753,3.708,3.73,3.73,3.686,3.642,3.6,3.559,3.518,3.479,3.44,3.402,3.384,3.365,3.347,3.294,3.259,3.242,3.225,3.192,3.159,3.143,3.112,3.096,3.081,3.065,3.05,3.035,3.006,2.977,2.949,2.907,2.88,2.84,2.815,2.789,2.764,2.752,2.728,2.716,2.692,2.681,2.669,2.658,2.635,2.624,2.613,2.602,2.591,2.58,2.58,2.58,2.569,2.569,2.559,2.559,2.548,2.538,2.507,2.477,2.447,2.419,2.382,2.354,2.328,2.302,2.276,2.26,2.252,2.244,2.235,2.235,2.227,2.211,2.204,2.188,2.173,2.158,2.143,2.128,2.113,2.106,2.092,2.085,2.071,2.064,2.057,2.044,2.037,2.024,2.01,1.991,1.978,1.96,1.935,1.917,1.894,1.876,1.854,1.837,1.827,1.811,1.8,1.79,1.784,1.784,1.779,1.779,1.779,1.779,1.774,1.774,1.769,1.764,1.759,1.749,1.744,1.734,1.725,1.715,1.711,1.701,1.696,1.692,1.687,1.683,1.678,1.678,1.674,1.669,1.66,1.656,1.651,1.638,1.629,1.621,1.608,1.596,1.584,1.576,1.564,1.556,1.548,1.544,1.536,1.533,1.529,1.525,1.521,1.514,1.51,1.503,1.496,1.488,1.481,1.474,1.471,1.464,1.457,1.454,1.45,1.443,1.44,1.433,1.427,1.423,1.417,1.41,1.404,1.398,1.391,1.385,1.376,1.373,1.367,1.361,1.355,1.352,1.346,1.343,1.34,1.337,1.334,1.329,1.326,1.323,1.317,1.312,1.309,1.304,1.298,1.293,1.287,1.282,1.279,1.274,1.269,1.264,1.259,1.253,1.251,1.248,1.243,1.241,1.236,1.231,1.226,1.221,1.214,1.209,1.202,1.198,1.191,1.186,1.184,1.179,1.177,1.175,1.173,1.171,1.168,1.166,1.164,1.16,1.157,1.153,1.149,1.142,1.138,1.134,1.13,1.126,1.122,1.118,1.116,1.112,1.11,1.108
2.037,2.05,2.071,2.085,2.106,2.128,2.143,2.158,2.18,2.188,2.211,2.219,2.235,2.252,2.268,2.285,2.31,2.328,2.345,2.372,2.4,2.428,2.447,2.457,2.477,2.487,2.497,2.497,2.497,2.497,2.507,2.507,2.507,2.517,2.517,2.517,2.527,2.538,2.538,2.548,2.569,2.58,2.613,2.646,2.669,2.692,2.716,2.74,2.764,2.789,2.815,2.827,2.853,2.88,2.893,2.893,2.907,2.935,2.991,3.035,3.081,3.143,3.208,3.294,3.384,3.479,3.518,3.559,3.579,3.6,3.621,3.664,3.708,3.73,3.776,3.822,3.87,3.919,3.919,3.944,3.969,3.995,3.995,3.995,3.995,4.021,4.047,4.047,4.047,4.047,4.047,4.047,4.074,4.074,4.101,4.184,4.241,4.3,4.33,4.361,4.392,4.392,4.423,4.423,4.392,4.423,4.423,4.423,4.455,4.455,4.455,4.487,4.553,4.553,4.587,4.587,4.621,4.656,4.691,4.727,4.763,4.763,4.8,4.914,4.954,4.994,5.034,5.034,5.075,5.117,5.117,5.16,5.16,5.203,5.203,5.248,5.338,5.384,5.48,5.48,5.529,5.578,5.578,5.629,5.681,5.733,5.787,5.787,5.842,5.842,5.842,5.897,5.897,5.897,5.897,5.897,5.897,5.842,5.787,5.787,5.733,5.681,5.629,5.578,5.529,5.529,5.529,5.529,5.529,5.629,5.681,5.733,5.787,5.897,6.012,6.071,6.192,6.255,6.318,6.384,6.45,6.45,6.45,6.45,6.45,6.384,6.318,6.255,6.192,6.131,6.071,5.954,5.954,5.897,5.787,5.787,5.733,5.681,5.681,5.681,5.629,5.578,5.578,5.578,5.578,5.578,5.529,5.529,5.529,5.529,5.529,5.578,5.629,5.733,5.842,5.954,6.012,6.012,6.012,6.071,6.071,6.071,6.071,6.071,6.012,6.012,6.012,6.012,6.012,6.012,6.012,6.012,6.012,6.071,6.131,6.131,6.192,6.192,6.255,6.255,6.318,6.384,6.384,6.384,6.384,6.384,6.384,6.318,6.318,6.192,6.131,6.012,5.954,5.787,5.629,5.529,5.432,5.338,5.203,5.117,5.075,4.994,4.954,4.914,4.914,4.914,4.914,4.876,4.838,4.8,4.727,4.656,4.621,4.587,4.52,4.487,4.455,4.455,4.361,4.27,4.184,4.156,4.047,3.995,3.894,3.799,3.73,3.686,3.708,3.708,3.686,3.642,3.6,3.538,3.479,3.44,3.384,3.347,3.311,3.294,3.259,3.225,3.208,3.175,3.159,3.127,3.112,3.096,3.065,3.065,3.05,3.035,3.021,3.006,2.991,2.963,2.949,2.907,2.88,2.853,2.827,2.802,2.789,2.764,2.752,2.728,2.716,2.704,2.681,2.669,2.646,2.635,2.624,2.602,2.602,2.591,2.591,2.58,2.58,2.569,2.569,2.559,2.548,2.538,2.507,2.477,2.447,2.419,2.382,2.354,2.328,2.302,2.276,2.26,2.252,2.244,2.235,2.227,2.219,2.211,2.196,2.188,2.173,2.158,2.143,2.128,2.121,2.106,2.099,2.085,2.078,2.071,2.057,2.05,2.037,2.024,2.01,1.997,1.978,1.96,1.941,1.923,1.894,1.882,1.859,1.837,1.827,1.811,1.8,1.79,1.779,1.779,1.774,1.774,1.774,1.769,1.769,1.769,1.764,1.759,1.754,1.744,1.734,1.73,1.72,1.715,1.706,1.701,1.696,1.692,1.687,1.683,1.678,1.674,1.674,1.669,1.66,1.656,1.647,1.638,1.629,1.617,1.604,1.592,1.584,1.572,1.564,1.556,1.548,1.544,1.536,1.533,1.529,1.525,1.521,1.514,1.51,1.503,1.496,1.488,1.481,1.474,1.467,1.464,1.457,1.454,1.45,1.443,1.437,1.433,1.427,1.42,1.414,1.407,1.401,1.395,1.388,1.382,1.376,1.367,1.364,1.358,1.355,1.349,1.346,1.343,1.337,1.337,1.334,1.329,1.326,1.323,1.317,1.315,1.309,1.304,1.298,1.293,1.29,1.285,1.282,1.277,1.271,1.266,1.259,1.256,1.251,1.246,1.243,1.241,1.236,1.231,1.226,1.221,1.214,1.209,1.202,1.198,1.191,1.186,1.184,1.179,1.177,1.175,1.173,1.171,1.168,1.166,1.164,1.162,1.157,1.153,1.149,1.145,1.138,1.134,1.13,1.126,1.122,1.118,1.116,1.112,1.11,1.108
2.037,2.057,2.071,2.092,2.106,2.121,2.143,2.158,2.173,2.188,2.204,2.219,2.235,2.252,2.268,2.285,2.31,2.328,2.354,2.372,2.409,2.447,2.467,2.487,2.497,2.497,2.507,2.517,2.517,2.517,2.517,2.517,2.517,2.527,2.517,2.527,2.527,2.538,2.548,2.559,2.569,2.58,2.613,2.646,2.669,2.704,2.728,2.752,2.789,2.815,2.84,2.867,2.893,2.907,2.921,2.921,2.921,2.949,2.991,3.05,3.096,3.143,3.208,3.276,3.365,3.459,3.498,3.518,3.538,3.559,3.6,3.642,3.664,3.708,3.753,3.799,3.846,3.87,3.894,3.919,3.944,3.969,3.969,3.969,3.995,3.995,4.021,4.047,4.047,4.021,4.021,4.021,4.021,4.047,4.074,4.156,4.241,4.3,4.33,4.361,4.392,4.392,4.423,4.423,4.392,4.392,4.423,4.423,4.455,4.455,4.455,4.487,4.52,4.553,4.587,4.621,4.656,4.691,4.727,4.763,4.8,4.8,4.876,4.914,4.994,5.075,5.117,5.16,5.16,5.16,5.203,5.248,5.248,5.248,5.248,5.292,5.338,5.384,5.48,5.529,5.529,5.578,5.629,5.681,5.733,5.787,5.787,5.842,5.897,5.897,5.954,5.954,5.954,5.954,5.954,5.954,5.954,5.897,5.897,5.842,5.787,5.733,5.681,5.578,5.529,5.529,5.529,5.529,5.529,5.578,5.629,5.681,5.787,5.842,5.954,6.071,6.131,6.255,6.318,6.384,6.45,6.518,6.518,6.518,6.45,6.45,6.45,6.384,6.318,6.192,6.131,6.071,6.012,5.954,5.897,5.787,5.733,5.733,5.681,5.629,5.629,5.578,5.578,5.578,5.529,5.48,5.48,5.48,5.48,5.48,5.48,5.578,5.629,5.733,5.897,6.012,6.131,6.131,6.192,6.192,6.192,6.192,6.192,6.131,6.131,6.131,6.131,6.131,6.131,6.071,6.071,6.071,6.071,6.131,6.131,6.192,6.255,6.255,6.318,6.318,6.384,6.384,6.45,6.45,6.45,6.518,6.518,6.45,6.384,6.318,6.192,6.131,5.954,5.842,5.681,5.578,5.48,5.338,5.248,5.16,5.075,5.034,4.994,4.954,4.954,4.954,4.954,4.914,4.838,4.8,4.727,4.691,4.621,4.587,4.52,4.487,4.487,4.455,4.392,4.27,4.212,4.156,4.074,3.995,3.894,3.776,3.686,3.686,3.708,3.686,3.642,3.6,3.559,3.498,3.459,3.402,3.347,3.294,3.259,3.225,3.208,3.175,3.143,3.127,3.096,3.081,3.05,3.035,3.021,3.021,3.006,3.006,3.006,2.991,2.977,2.963,2.935,2.907,2.88,2.853,2.84,2.815,2.789,2.777,2.764,2.752,2.728,2.716,2.704,2.681,2.658,2.646,2.624,2.613,2.602,2.602,2.591,2.58,2.58,2.569,2.569,2.559,2.548,2.527,2.507,2.477,2.447,2.419,2.382,2.354,2.328,2.302,2.276,2.26,2.252,2.244,2.235,2.227,2.219,2.211,2.196,2.18,2.173,2.158,2.143,2.128,2.113,2.106,2.099,2.085,2.078,2.071,2.064,2.05,2.037,2.03,2.01,1.997,1.985,1.966,1.947,1.929,1.905,1.888,1.865,1.848,1.832,1.816,1.8,1.79,1.779,1.779,1.774,1.769,1.769,1.769,1.764,1.764,1.759,1.754,1.749,1.744,1.734,1.725,1.72,1.715,1.711,1.701,1.696,1.692,1.687,1.683,1.678,1.674,1.669,1.665,1.66,1.651,1.642,1.634,1.625,1.613,1.6,1.592,1.58,1.572,1.564,1.556,1.548,1.544,1.54,1.533,1.533,1.529,1.521,1.518,1.51,1.503,1.496,1.488,1.481,1.474,1.467,1.464,1.457,1.454,1.45,1.443,1.437,1.433,1.427,1.417,1.414,1.404,1.395,1.388,1.385,1.379,1.37,1.367,1.361,1.355,1.352,1.346,1.343,1.34,1.337,1.334,1.332,1.329,1.326,1.323,1.32,1.315,1.309,1.306,1.301,1.295,1.29,1.287,1.282,1.277,1.271,1.264,1.259,1.256,1.251,1.246,1.243,1.238,1.236,1.231,1.226,1.221,1.214,1.209,1.202,1.198,1.193,1.188,1.184,1.179,1.177,1.175,1.175,1.173,1.171,1.166,1.164,1.162,1.157,1.153,1.149,1.145,1.138,1.134,1.13,1.126,1.122,1.118,1.116,1.112,1.11,1.108
2.044,2.057,2.078,2.092,2.106,2.121,2.143,2.158,2.173,2.188,2.204,2.211,2.227,2.252,2.268,2.285,2.31,2.337,2.363,2.391,2.428,2.457,2.487,2.507,2.527,2.527,2.538,2.538,2.538,2.538,2.527,2.538,2.527,2.527,2.527,2.527,2.538,2.538,2.548,2.559,2.569,2.591,2.613,2.646,2.681,2.704,2.74,2.777,2.815,2.84,2.867,2.893,2.921,2.935,2.949,2.963,2.963,2.991,3.021,3.081,3.112,3.159,3.225,3.276,3.347,3.421,3.479,3.498,3.518,3.538,3.579,3.6,3.642,3.686,3.73,3.753,3.799,3.822,3.846,3.87,3.894,3.919,3.944,3.944,3.944,3.969,3.995,3.995,4.021,4.021,4.021,4.021,4.021,4.047,4.074,4.156,4.212,4.3,4.33,4.361,4.392,4.392,4.423,4.423,4.392,4.423,4.423,4.423,4.455,4.455,4.487,4.487,4.553,4.587,4.621,4.621,4.656,4.691,4.763,4.8,4.838,4.876,4.914,4.994,5.117,5.16,5.203,5.248,5.248,5.292,5.292,5.338,5.338,5.338,5.292,5.338,5.384,5.432,5.432,5.48,5.529,5.578,5.629,5.681,5.733,5.842,5.842,5.897,5.954,6.012,6.012,6.012,6.012,6.012,6.071,6.012,5.954,5.954,5.954,5.897,5.842,5.787,5.681,5.629,5.578,5.578,5.529,5.529,5.578,5.578,5.578,5.681,5.733,5.787,5.897,6.012,6.131,6.192,6.318,6.384,6.45,6.587,6.587,6.587,6.518,6.518,6.45,6.45,6.384,6.255,6.255,6.131,6.071,6.012,5.954,5.842,5.787,5.733,5.681,5.629,5.629,5.578,5.578,5.529,5.529,5.48,5.48,5.48,5.48,5.529,5.529,5.629,5.733,5.897,6.012,6.192,6.255,6.255,6.255,6.255,6.318,6.318,6.255,6.255,6.255,6.192,6.192,6.192,6.192,6.131,6.131,6.192,6.131,6.192,6.192,6.255,6.318,6.318,6.318,6.384,6.45,6.45,6.518,6.518,6.518,6.518,6.518,6.518,6.45,6.384,6.255,6.131,6.012,5.842,5.681,5.578,5.48,5.338,5.248,5.16,5.075,5.075,5.034,4.994,4.994,4.954,4.954,4.914,4.838,4.8,4.727,4.691,4.621,4.587,4.52,4.487,4.487,4.487,4.392,4.27,4.212,4.156,4.074,4.021,3.919,3.776,3.686,3.664,3.664,3.664,3.621,3.579,3.518,3.479,3.421,3.365,3.311,3.259,3.225,3.192,3.159,3.127,3.112,3.096,3.065,3.065,3.035,3.035,3.021,3.006,3.006,3.006,2.991,2.991,2.977,2.949,2.935,2.907,2.88,2.867,2.84,2.827,2.815,2.802,2.777,2.764,2.752,2.728,2.716,2.692,2.669,2.646,2.635,2.624,2.613,2.602,2.591,2.58,2.58,2.569,2.559,2.548,2.538,2.517,2.497,2.477,2.447,2.409,2.382,2.354,2.328,2.302,2.276,2.26,2.252,2.244,2.235,2.227,2.211,2.204,2.188,2.18,2.165,2.15,2.143,2.128,2.113,2.106,2.092,2.085,2.078,2.071,2.064,2.05,2.037,2.03,2.017,1.997,1.985,1.966,1.953,1.935,1.911,1.894,1.871,1.848,1.832,1.821,1.805,1.79,1.779,1.779,1.769,1.769,1.764,1.764,1.759,1.759,1.754,1.749,1.744,1.734,1.73,1.725,1.715,1.711,1.706,1.701,1.696,1.692,1.687,1.683,1.678,1.674,1.669,1.66,1.656,1.647,1.638,1.629,1.621,1.608,1.596,1.584,1.576,1.568,1.56,1.556,1.548,1.544,1.54,1.536,1.533,1.529,1.525,1.518,1.514,1.507,1.499,1.492,1.481,1.474,1.471,1.464,1.457,1.454,1.45,1.443,1.437,1.43,1.423,1.417,1.41,1.401,1.395,1.385,1.382,1.376,1.367,1.361,1.358,1.355,1.349,1.346,1.343,1.34,1.337,1.334,1.332,1.329,1.326,1.323,1.32,1.317,1.312,1.309,1.304,1.295,1.29,1.287,1.282,1.277,1.269,1.264,1.259,1.253,1.248,1.246,1.241,1.238,1.236,1.231,1.226,1.221,1.214,1.209,1.202,1.198,1.193,1.188,1.184,1.182,1.179,1.175,1.175,1.173,1.171,1.168,1.164,1.162,1.157,1.153,1.149,1.142,1.138,1.134,1.13,1.126,1.12,1.118,1.114,1.112,1.11,1.108
2.044,2.057,2.078,2.092,2.106,2.121,2.135,2.15,2.165,2.18,2.196,2.204,2.219,2.235,2.252,2.276,2.302,2.328,2.354,2.382,2.428,2.457,2.497,2.527,2.527,2.548,2.548,2.559,2.548,2.548,2.548,2.538,2.538,2.538,2.538,2.538,2.538,2.548,2.548,2.559,2.58,2.591,2.613,2.646,2.681,2.716,2.752,2.802,2.84,2.867,2.907,2.935,2.949,2.977,2.991,2.991,2.991,3.021,3.05,3.096,3.127,3.175,3.225,3.276,3.329,3.402,3.421,3.44,3.479,3.498,3.538,3.559,3.6,3.642,3.686,3.73,3.753,3.799,3.822,3.822,3.87,3.894,3.919,3.919,3.944,3.944,3.969,3.969,3.995,3.995,3.995,3.995,4.021,4.047,4.074,4.156,4.212,4.3,4.361,4.392,4.423,4.423,4.423,4.455,4.423,4.423,4.455,4.455,4.455,4.487,4.487,4.52,4.553,4.587,4.621,4.656,4.691,4.727,4.8,4.876,4.914,4.954,4.994,5.075,5.16,5.248,5.292,5.338,5.338,5.384,5.384,5.432,5.432,5.384,5.384,5.384,5.384,5.384,5.432,5.48,5.48,5.529,5.629,5.681,5.733,5.842,5.897,5.954,6.012,6.012,6.071,6.071,6.071,6.071,6.071,6.071,6.071,6.012,5.954,5.954,5.897,5.842,5.787,5.681,5.629,5.629,5.629,5.578,5.578,5.578,5.578,5.629,5.681,5.787,5.897,5.954,6.071,6.192,6.255,6.384,6.45,6.518,6.587,6.658,6.587,6.587,6.518,6.518,6.45,6.384,6.318,6.192,6.131,6.071,6.012,5.897,5.842,5.787,5.733,5.681,5.681,5.629,5.578,5.578,5.529,5.529,5.48,5.48,5.48,5.529,5.578,5.681,5.733,5.897,6.131,6.255,6.318,6.384,6.384,6.384,6.384,6.384,6.384,6.384,6.318,6.318,6.318,6.255,6.255,6.192,6.192,6.192,6.192,6.192,6.255,6.255,6.318,6.384,6.384,6.45,6.518,6.518,6.518,6.518,6.587,6.587,6.587,6.518,6.518,6.384,6.318,6.192,6.012,5.842,5.733,5.578,5.48,5.338,5.248,5.16,5.117,5.075,5.034,4.994,4.994,4.994,4.954,4.914,4.876,4.8,4.727,4.691,4.621,4.553,4.52,4.487,4.487,4.487,4.423,4.27,4.212,4.156,4.101,4.021,3.944,3.799,3.686,3.642,3.664,3.642,3.621,3.559,3.498,3.459,3.402,3.365,3.294,3.259,3.208,3.159,3.143,3.112,3.096,3.081,3.05,3.035,3.021,3.021,3.006,3.006,3.006,3.006,2.991,2.977,2.963,2.949,2.935,2.907,2.893,2.88,2.853,2.84,2.827,2.815,2.789,2.777,2.764,2.74,2.716,2.704,2.681,2.658,2.635,2.624,2.613,2.602,2.591,2.58,2.569,2.569,2.559,2.548,2.538,2.517,2.497,2.467,2.438,2.409,2.382,2.354,2.328,2.302,2.285,2.268,2.252,2.244,2.227,2.219,2.211,2.196,2.18,2.173,2.158,2.143,2.135,2.121,2.113,2.099,2.092,2.085,2.071,2.064,2.057,2.05,2.037,2.024,2.01,1.997,1.985,1.972,1.96,1.941,1.917,1.899,1.876,1.859,1.843,1.827,1.811,1.795,1.784,1.779,1.769,1.769,1.764,1.764,1.759,1.754,1.749,1.744,1.744,1.734,1.725,1.72,1.715,1.711,1.706,1.701,1.696,1.692,1.687,1.683,1.678,1.674,1.669,1.66,1.651,1.642,1.634,1.621,1.613,1.6,1.588,1.58,1.572,1.564,1.56,1.556,1.548,1.544,1.54,1.536,1.533,1.529,1.525,1.521,1.514,1.507,1.499,1.492,1.485,1.478,1.471,1.464,1.46,1.454,1.45,1.443,1.437,1.433,1.427,1.417,1.41,1.401,1.391,1.385,1.379,1.373,1.367,1.361,1.355,1.352,1.349,1.346,1.343,1.34,1.337,1.334,1.332,1.329,1.326,1.323,1.32,1.317,1.312,1.306,1.301,1.295,1.29,1.285,1.279,1.274,1.266,1.264,1.256,1.253,1.248,1.246,1.241,1.238,1.233,1.231,1.226,1.219,1.214,1.209,1.205,1.2,1.193,1.188,1.184,1.182,1.179,1.177,1.175,1.173,1.171,1.168,1.164,1.162,1.157,1.153,1.147,1.142,1.138,1.132,1.128,1.124,1.12,1.118,1.114,1.112,1.11,1.108
2.044,2.057,2.078,2.099,2.113,2.128,2.135,2.158,2.165,2.18,2.196,2.204,2.219,2.235,2.252,2.276,2.302,2.319,2.337,2.372,2.419,2.447,2.487,2.517,2.538,2.548,2.559,2.559,2.559,2.559,2.559,2.548,2.548,2.548,2.548,2.548,2.548,2.548,2.559,2.559,2.58,2.591,2.613,2.646,2.681,2.716,2.764,2.815,2.853,2.893,2.921,2.963,2.991,3.006,3.006,3.021,3.035,3.035,3.081,3.112,3.127,3.159,3.208,3.259,3.294,3.347,3.384,3.402,3.44,3.459,3.498,3.518,3.559,3.6,3.664,3.686,3.73,3.753,3.776,3.799,3.822,3.846,3.87,3.87,3.894,3.919,3.919,3.944,3.944,3.969,3.969,3.995,3.995,4.021,4.074,4.156,4.241,4.3,4.361,4.392,4.423,4.423,4.455,4.455,4.423,4.455,4.455,4.455,4.487,4.487,4.487,4.52,4.553,4.587,4.621,4.691,4.727,4.763,4.838,4.954,4.994,5.034,5.117,5.16,5.248,5.338,5.384,5.432,5.48,5.48,5.48,5.529,5.48,5.48,5.432,5.384,5.384,5.384,5.384,5.432,5.48,5.529,5.629,5.733,5.787,5.842,5.954,6.012,6.071,6.071,6.131,6.131,6.131,6.131,6.131,6.131,6.131,6.071,6.012,6.012,5.954,5.897,5.842,5.733,5.681,5.681,5.629,5.629,5.578,5.578,5.578,5.629,5.733,5.733,5.842,5.897,6.071,6.131,6.255,6.384,6.384,6.518,6.587,6.658,6.658,6.587,6.587,6.518,6.518,6.384,6.384,6.255,6.192,6.131,6.071,5.954,5.897,5.842,5.842,5.787,5.733,5.681,5.629,5.578,5.578,5.529,5.48,5.48,5.48,5.48,5.578,5.681,5.842,6.012,6.192,6.318,6.45,6.45,6.45,6.518,6.518,6.45,6.45,6.45,6.384,6.384,6.384,6.384,6.318,6.255,6.255,6.255,6.318,6.255,6.318,6.384,6.384,6.45,6.45,6.518,6.518,6.587,6.587,6.587,6.658,6.658,6.658,6.587,6.518,6.45,6.318,6.192,6.012,5.897,5.733,5.578,5.48,5.338,5.248,5.16,5.117,5.075,5.075,5.034,5.034,5.034,4.994,4.914,4.876,4.8,4.727,4.691,4.621,4.553,4.52,4.455,4.487,4.487,4.392,4.27,4.212,4.156,4.101,4.047,3.944,3.799,3.708,3.642,3.642,3.642,3.6,3.559,3.498,3.44,3.402,3.329,3.276,3.225,3.175,3.143,3.127,3.096,3.081,3.05,3.05,3.035,3.021,3.006,3.006,3.006,3.006,2.991,2.991,2.977,2.963,2.949,2.935,2.921,2.893,2.88,2.867,2.853,2.84,2.827,2.815,2.789,2.777,2.752,2.728,2.704,2.692,2.669,2.646,2.624,2.613,2.602,2.591,2.58,2.569,2.569,2.559,2.548,2.538,2.517,2.497,2.467,2.438,2.409,2.382,2.354,2.328,2.302,2.276,2.26,2.252,2.235,2.227,2.211,2.204,2.188,2.173,2.158,2.15,2.135,2.128,2.113,2.106,2.099,2.085,2.078,2.071,2.064,2.057,2.05,2.037,2.024,2.01,1.997,1.985,1.972,1.96,1.947,1.923,1.911,1.882,1.865,1.848,1.832,1.816,1.805,1.79,1.784,1.774,1.769,1.764,1.764,1.754,1.749,1.749,1.744,1.739,1.73,1.725,1.72,1.711,1.711,1.706,1.701,1.696,1.692,1.687,1.683,1.678,1.674,1.665,1.656,1.647,1.638,1.629,1.617,1.608,1.596,1.588,1.576,1.568,1.564,1.556,1.552,1.548,1.544,1.54,1.536,1.536,1.533,1.525,1.521,1.514,1.507,1.499,1.492,1.485,1.478,1.471,1.464,1.46,1.457,1.45,1.447,1.44,1.433,1.427,1.417,1.41,1.401,1.391,1.385,1.379,1.373,1.364,1.358,1.355,1.352,1.349,1.343,1.343,1.34,1.337,1.334,1.332,1.329,1.326,1.323,1.32,1.315,1.309,1.306,1.298,1.293,1.287,1.282,1.277,1.271,1.266,1.259,1.253,1.251,1.246,1.243,1.238,1.236,1.233,1.229,1.224,1.219,1.214,1.209,1.205,1.2,1.195,1.188,1.186,1.182,1.182,1.179,1.177,1.173,1.171,1.168,1.166,1.162,1.157,1.153,1.147,1.142,1.136,1.132,1.128,1.124,1.12,1.116,1.114,1.112,1.11,1.108
2.037,2.057,2.078,2.092,2.106,2.128,2.135,2.158,2.165,2.18,2.196,2.204,2.219,2.235,2.252,2.268,2.293,2.31,2.328,2.354,2.4,2.438,2.467,2.497,2.517,2.538,2.548,2.559,2.559,2.559,2.559,2.548,2.548,2.548,2.548,2.548,2.548,2.548,2.559,2.569,2.58,2.591,2.613,2.658,2.681,2.728,2.764,2.815,2.853,2.88,2.921,2.949,2.977,2.991,3.006,3.021,3.021,3.035,3.065,3.096,3.127,3.143,3.175,3.225,3.259,3.311,3.329,3.365,3.402,3.421,3.459,3.498,3.538,3.579,3.621,3.664,3.686,3.708,3.73,3.753,3.776,3.822,3.822,3.846,3.846,3.87,3.894,3.894,3.919,3.919,3.944,3.969,3.995,4.047,4.074,4.156,4.241,4.33,4.392,4.392,4.423,4.455,4.455,4.487,4.455,4.455,4.487,4.487,4.52,4.52,4.52,4.553,4.587,4.621,4.656,4.691,4.727,4.8,4.876,4.994,5.075,5.117,5.203,5.248,5.338,5.384,5.48,5.529,5.529,5.578,5.578,5.578,5.578,5.529,5.48,5.432,5.384,5.432,5.432,5.48,5.48,5.529,5.629,5.733,5.842,5.897,5.954,6.071,6.131,6.131,6.192,6.192,6.192,6.192,6.192,6.192,6.192,6.131,6.071,6.071,6.012,5.954,5.897,5.787,5.787,5.733,5.681,5.629,5.629,5.578,5.629,5.629,5.733,5.787,5.787,5.897,5.954,6.071,6.192,6.255,6.384,6.518,6.587,6.587,6.658,6.658,6.658,6.658,6.518,6.45,6.384,6.318,6.255,6.192,6.071,6.012,5.954,5.897,5.897,5.842,5.842,5.787,5.733,5.681,5.629,5.578,5.578,5.529,5.529,5.529,5.578,5.681,5.842,6.071,6.192,6.318,6.45,6.518,6.518,6.587,6.587,6.518,6.518,6.518,6.518,6.45,6.45,6.45,6.45,6.384,6.318,6.318,6.384,6.384,6.384,6.384,6.45,6.45,6.518,6.518,6.587,6.587,6.587,6.587,6.658,6.658,6.587,6.587,6.587,6.45,6.318,6.192,6.071,5.897,5.733,5.578,5.48,5.338,5.248,5.16,5.16,5.117,5.075,5.075,5.075,5.034,4.994,4.914,4.876,4.8,4.727,4.691,4.621,4.553,4.487,4.455,4.455,4.487,4.392,4.3,4.212,4.156,4.128,4.074,3.969,3.846,3.73,3.664,3.664,3.642,3.6,3.538,3.479,3.421,3.365,3.329,3.276,3.225,3.175,3.143,3.112,3.081,3.065,3.05,3.05,3.021,3.021,3.021,3.006,3.006,3.006,3.006,2.991,2.991,2.977,2.963,2.949,2.921,2.907,2.893,2.867,2.853,2.84,2.827,2.815,2.802,2.789,2.764,2.74,2.716,2.692,2.669,2.646,2.635,2.613,2.602,2.591,2.591,2.58,2.569,2.559,2.548,2.538,2.517,2.487,2.467,2.438,2.409,2.372,2.345,2.319,2.302,2.276,2.26,2.244,2.227,2.219,2.211,2.196,2.18,2.165,2.15,2.135,2.128,2.121,2.106,2.099,2.085,2.085,2.078,2.071,2.057,2.05,2.044,2.037,2.024,2.01,1.997,1.985,1.972,1.96,1.941,1.923,1.911,1.894,1.871,1.854,1.837,1.827,1.811,1.8,1.79,1.779,1.774,1.769,1.764,1.759,1.749,1.744,1.744,1.734,1.73,1.725,1.72,1.711,1.706,1.706,1.701,1.696,1.692,1.687,1.683,1.678,1.674,1.66,1.656,1.642,1.634,1.625,1.613,1.604,1.596,1.584,1.576,1.568,1.56,1.556,1.552,1.548,1.544,1.54,1.536,1.533,1.529,1.525,1.521,1.514,1.507,1.499,1.492,1.485,1.478,1.471,1.464,1.46,1.457,1.45,1.447,1.44,1.433,1.427,1.42,1.41,1.401,1.391,1.385,1.379,1.373,1.364,1.358,1.355,1.352,1.349,1.346,1.343,1.34,1.337,1.334,1.332,1.329,1.326,1.323,1.317,1.315,1.309,1.304,1.298,1.29,1.285,1.279,1.274,1.269,1.261,1.256,1.253,1.248,1.246,1.241,1.238,1.236,1.233,1.229,1.224,1.219,1.214,1.209,1.205,1.2,1.195,1.191,1.186,1.184,1.182,1.179,1.177,1.175,1.173,1.168,1.166,1.162,1.157,1.153,1.147,1.142,1.136,1.132,1.128,1.124,1.12,1.118,1.114,1.112,1.11,1.108
2.03,2.05,2.071,2.092,2.106,2.128,2.143,2.158,2.173,2.188,2.196,2.219,2.227,2.244,2.26,2.276,2.293,2.31,2.328,2.354,2.382,2.419,2.447,2.477,2.497,2.517,2.527,2.548,2.559,2.548,2.548,2.548,2.548,2.548,2.548,2.548,2.548,2.548,2.559,2.569,2.591,2.602,2.624,2.658,2.692,2.728,2.764,2.802,2.827,2.867,2.907,2.935,2.949,2.977,2.977,2.991,3.006,3.021,3.05,3.065,3.081,3.112,3.143,3.192,3.225,3.259,3.294,3.311,3.347,3.402,3.44,3.459,3.498,3.559,3.579,3.621,3.664,3.686,3.708,3.73,3.753,3.776,3.799,3.799,3.799,3.822,3.87,3.894,3.894,3.919,3.944,3.944,3.969,4.021,4.074,4.184,4.27,4.33,4.392,4.423,4.455,4.487,4.487,4.52,4.487,4.487,4.52,4.52,4.553,4.553,4.587,4.621,4.656,4.656,4.691,4.727,4.763,4.838,4.914,5.034,5.075,5.117,5.248,5.292,5.384,5.48,5.529,5.629,5.629,5.681,5.681,5.681,5.629,5.578,5.529,5.48,5.48,5.432,5.432,5.48,5.529,5.578,5.629,5.787,5.842,5.954,6.012,6.131,6.192,6.255,6.255,6.255,6.255,6.255,6.255,6.255,6.255,6.192,6.192,6.131,6.071,6.012,5.954,5.897,5.842,5.787,5.787,5.681,5.681,5.629,5.629,5.681,5.733,5.787,5.842,5.897,6.012,6.071,6.131,6.192,6.318,6.45,6.518,6.518,6.587,6.587,6.658,6.658,6.587,6.518,6.45,6.384,6.255,6.255,6.192,6.131,6.071,6.012,6.012,5.954,5.954,5.897,5.842,5.787,5.681,5.681,5.629,5.578,5.578,5.578,5.629,5.733,5.842,6.012,6.192,6.318,6.45,6.518,6.587,6.658,6.658,6.587,6.587,6.587,6.587,6.587,6.518,6.518,6.518,6.45,6.45,6.45,6.45,6.45,6.45,6.45,6.518,6.518,6.518,6.587,6.587,6.587,6.658,6.658,6.658,6.658,6.658,6.587,6.518,6.45,6.384,6.192,6.071,5.897,5.733,5.629,5.48,5.384,5.248,5.203,5.16,5.117,5.117,5.075,5.075,5.034,4.994,4.954,4.876,4.8,4.727,4.691,4.621,4.52,4.487,4.455,4.455,4.455,4.392,4.27,4.212,4.184,4.128,4.101,3.995,3.87,3.753,3.708,3.664,3.642,3.6,3.538,3.479,3.421,3.384,3.329,3.276,3.242,3.175,3.143,3.112,3.096,3.081,3.05,3.035,3.021,3.006,3.006,3.006,3.006,3.006,2.991,2.991,2.977,2.963,2.949,2.935,2.921,2.893,2.88,2.867,2.853,2.84,2.84,2.815,2.802,2.789,2.764,2.74,2.716,2.692,2.681,2.658,2.635,2.624,2.613,2.591,2.591,2.58,2.569,2.559,2.548,2.538,2.507,2.487,2.457,2.428,2.4,2.372,2.345,2.319,2.293,2.276,2.26,2.244,2.227,2.219,2.204,2.188,2.173,2.158,2.143,2.135,2.121,2.113,2.099,2.092,2.078,2.071,2.064,2.064,2.057,2.05,2.044,2.03,2.024,2.01,1.997,1.985,1.972,1.96,1.947,1.923,1.911,1.894,1.876,1.859,1.848,1.832,1.821,1.805,1.8,1.79,1.779,1.774,1.769,1.759,1.754,1.749,1.744,1.734,1.73,1.725,1.72,1.711,1.711,1.706,1.701,1.701,1.696,1.687,1.683,1.678,1.669,1.66,1.651,1.638,1.629,1.621,1.608,1.6,1.592,1.584,1.572,1.568,1.56,1.556,1.548,1.548,1.544,1.54,1.536,1.533,1.529,1.525,1.521,1.514,1.507,1.499,1.492,1.485,1.478,1.471,1.464,1.46,1.457,1.45,1.447,1.44,1.433,1.427,1.42,1.41,1.404,1.395,1.385,1.382,1.373,1.367,1.361,1.358,1.352,1.349,1.346,1.343,1.343,1.337,1.337,1.334,1.332,1.326,1.323,1.317,1.312,1.306,1.301,1.295,1.287,1.282,1.277,1.271,1.264,1.259,1.256,1.251,1.246,1.243,1.241,1.236,1.233,1.231,1.229,1.224,1.219,1.214,1.209,1.205,1.2,1.195,1.191,1.186,1.184,1.182,1.179,1.177,1.175,1.173,1.168,1.166,1.162,1.157,1.153,1.147,1.142,1.136,1.132,1.128,1.124,1.12,1.118,1.114,1.112,1.11,1.108
