1.098,1.098,1.096,1.096,1.096,1.096,1.094,1.094,1.094,1.094,1.094,1.094,1.094,1.096,1.098,1.098,1.098,1.1,1.1,1.1,1.1,1.1,1.098,1.098,1.098,1.096,1.092,1.092,1.092,1.092,1.092,1.092,1.092,1.09,1.09,1.09,1.09,1.088,1.088,1.088,1.088,1.088,1.09,1.092,1.094,1.096,1.098,1.1,1.102,1.106,1.108,1.11,1.112,1.114,1.118,1.12,1.122,1.126,1.13,1.132,1.136,1.138,1.142,1.147,1.151,1.153,1.157,1.162,1.166,1.171,1.171,1.177,1.179,1.182,1.182,1.184,1.188,1.188,1.188,1.188,1.191,1.193,1.198,1.2,1.205,1.205,1.207,1.209,1.212,1.209,1.207,1.202,1.198,1.193,1.191,1.188,1.184,1.182,1.182,1.182,1.182,1.184,1.184,1.184,1.184,1.186,1.186,1.186,1.186,1.186,1.184,1.179,1.177,1.173,1.166,1.16,1.153,1.147,1.14,1.136,1.13,1.126,1.122,1.122,1.12,1.118,1.118,1.118,1.118,1.12,1.12,1.122,1.124,1.124,1.124,1.126,1.126,1.126,1.126,1.124,1.12,1.118,1.116,1.114,1.112,1.11,1.106,1.106,1.106,1.106,1.106,1.108,1.108,1.11,1.112,1.114,1.116,1.116,1.116,1.116,1.118,1.118,1.116,1.116,1.114,1.114,1.112,1.11,1.108,1.104,1.102,1.1,1.098,1.1,1.1,1.1,1.1,1.102,1.104,1.106,1.106,1.108,1.108,1.108,1.112,1.112,1.114,1.114,1.114,1.114,1.114,1.114,1.11,1.106,1.1,1.098,1.096,1.094,1.092,1.092,1.094,1.096,1.096,1.096,1.096,1.098,1.098,1.098,1.096,1.094,1.094,1.096,1.096,1.096,1.096,1.094,1.094,1.094,1.096,1.096,1.096,1.094,1.094,1.096,1.096,1.096,1.096,1.094,1.094,1.092,1.09,1.09,1.09,1.09,1.092,1.092,1.09,1.09,1.092,1.092,1.09,1.09,1.09,1.088,1.088,1.088,1.088,1.086,1.086,1.086,1.084,1.083,1.081,1.077,1.077,1.073,1.071,1.068,1.064,1.06,1.041,0,0,0,0,0.915,0.909,0.905,0.903,0.901,0.899,0.896,0.895,0.894,0.892,0.892,0.894,0.894,0.894,0.894,0.895,0.896,0.897,0.899,0.899,0.9,0.9,0.901,0.901,0.901,0.905,0.908,0.912,0.917,0.923,0.935,0.951,0.968,0,1.005,1.025,1.044,1.057,1.066,1.071,1.075,1.077,1.079,1.081,1.083,1.083,1.083,1.083,1.083,1.081,1.081,1.081,1.081,1.081,1.081,1.081,1.081,1.083,1.084,1.084,1.084,1.086,1.086,1.086,1.086,1.086,1.084,1.084,1.083,1.081,1.081,1.079,1.079,1.079,1.077,1.075,1.075,1.075,1.075,1.075,1.073,1.073,1.073,1.073,1.073,1.073,1.073,1.073,1.075,1.075,1.075,1.077,1.077,1.079,1.081,1.081,1.083,1.083,1.083,1.081,1.081,1.081,1.081,1.081,1.079,1.077,1.077,1.075,1.073,1.075,1.075,1.075,1.075,1.075,1.075,1.075,1.077,1.079,1.079,1.079,1.079,1.079,1.079,1.081,1.081,1.081,1.081,1.081,1.083,1.083,1.083,1.083,1.083,1.083,1.083,1.083,1.084,1.084,1.084,1.084,1.084,1.083,1.081,1.081,1.079,1.077,1.077,0,0,0,0,0,0,0,0,0,0.736,0.735,0.735,0.735,0.733,0.731,0.729,0.728,0.726,0.724,0.723,0.722,0.72,0.719,0.718,0.719,0.719,0.721,0.721,0.723,0.723,0.723,0.732,0.744,0.757,0,0.799,0.818,0.838,0.846,0.847,0.848,0.851,0.852,0.853,0.854,0.855,0.855,0.856,0.856,0.856,0.856,0.855,0.855,0.856,0.855,0.854,0.853,0.852,0.852,0.849,0.848,0.848,0.847,0.846,0.845,0.845,0.846,0.846,0.847,0.848,0.849,0.851,0.852,0.852,0.853,0.854,0.854,0.854,0.854,0.854,0.853,0.853,0.852,0.851,0.849,0.848,0.847,0.848,0.846,0.845,0.845,0.845,0.845,0.845,0.844,0.845,0.845,0.846,0.846,0.847,0.849,0.852,0.854,0.856,0.859,0.86,0.86,0.861,0.861,0.862,0.862,0.861,0.862,0.864,0.865,0.867,0.868,0.87,0.871,0.871,0.872,0.872,0.872,0.872,0.871,0.868,0.866,0.862,0.859,0.856,0.853,0.852,0.848,0.847,0.846,0.846,0.846,0.846,0.847,0.848,0.849,0.852,0.854,0.856,0.859,0.861,0.862
1.088,1.088,1.086,1.086,1.086,1.086,1.086,1.086,1.086,1.086,1.086,1.086,1.086,1.088,1.088,1.09,1.09,1.09,1.092,1.092,1.092,1.09,1.09,1.088,1.088,1.086,1.084,1.084,1.084,1.084,1.084,1.084,1.083,1.083,1.083,1.083,1.083,1.081,1.079,1.081,1.081,1.081,1.083,1.084,1.086,1.088,1.09,1.092,1.096,1.1,1.102,1.106,1.11,1.114,1.116,1.12,1.122,1.126,1.13,1.132,1.136,1.14,1.142,1.147,1.147,1.151,1.155,1.157,1.162,1.166,1.168,1.173,1.175,1.177,0,0,0,0,0,0,0,1.193,1.198,1.2,1.205,1.207,1.209,1.209,1.214,1.207,1.207,1.202,1.198,1.193,1.188,1.188,1.184,1.182,1.184,1.184,1.184,1.186,1.184,1.184,1.184,1.186,1.188,1.186,1.186,1.184,1.182,1.179,1.177,1.168,1.162,1.151,1.145,1.138,1.13,1.124,1.12,1.114,1.112,1.11,1.108,1.108,1.108,1.11,1.11,1.11,1.112,1.116,1.116,1.118,1.118,1.12,1.12,1.12,1.118,1.116,1.112,1.11,1.108,1.106,1.106,1.102,1.1,1.098,1.1,1.1,1.102,1.102,1.104,1.106,1.108,1.11,1.11,1.112,1.114,1.114,1.112,1.112,1.11,1.108,1.108,1.106,1.104,1.102,1.1,1.096,1.092,1.092,1.092,1.092,1.094,1.094,1.094,1.096,1.1,1.104,1.104,1.106,1.106,1.108,1.11,1.112,1.11,1.11,1.11,1.11,1.11,1.108,1.104,1.098,1.092,1.09,1.088,1.088,1.086,1.086,1.086,1.088,1.088,1.088,1.088,1.088,1.086,1.086,1.084,1.084,1.083,1.084,1.086,1.086,1.084,1.084,1.086,1.086,1.088,1.088,1.088,1.088,1.088,1.09,1.09,1.088,1.088,1.088,1.086,1.084,1.083,1.083,1.083,1.083,1.083,1.083,1.083,1.083,1.084,1.084,1.084,1.084,1.084,1.083,1.083,1.083,1.083,1.083,1.083,1.083,1.081,1.079,1.075,1.073,1.069,1.069,1.066,1.064,1.06,1.055,1.037,0,0,0,0,0.924,0.916,0.909,0.907,0.903,0.9,0.896,0.894,0.894,0.892,0.892,0.894,0.894,0.894,0.894,0.895,0.897,0.899,0.899,0.9,0.9,0.901,0.903,0.903,0.903,0.908,0.911,0.916,0.923,0.93,0.944,0.962,0,0,1.007,1.022,1.035,1.048,1.057,1.062,1.064,1.068,1.069,1.071,1.073,1.075,1.075,1.075,1.075,1.073,1.073,1.073,1.073,1.073,1.073,1.075,1.073,1.075,1.077,1.077,1.079,1.079,1.079,1.079,1.079,1.079,1.079,1.079,1.079,1.077,1.075,1.075,1.075,1.075,1.075,1.073,1.071,1.071,1.071,1.071,1.069,1.069,1.069,1.069,1.069,1.069,1.069,1.069,1.069,1.071,1.071,1.071,1.073,1.073,1.075,1.077,1.077,1.077,1.077,1.077,1.075,1.075,1.075,1.073,1.073,1.071,1.069,1.068,1.068,1.068,1.069,1.069,1.068,1.068,1.069,1.069,1.069,1.071,1.071,1.071,1.071,1.071,1.071,1.071,1.071,1.071,1.073,1.075,1.075,1.075,1.077,1.077,1.077,1.077,1.077,1.077,1.079,1.079,1.079,1.079,1.079,1.077,1.077,1.075,1.073,1.073,1.073,1.071,0,0,0,0,0,0,0,0,0,0.735,0.735,0.734,0.733,0.731,0.729,0.728,0.726,0.723,0.722,0.721,0.719,0.718,0.718,0.718,0.719,0.72,0.721,0.723,0.723,0.725,0.735,0.749,0.764,0,0,0.816,0.833,0.84,0.841,0.844,0.845,0.846,0.847,0.848,0.849,0.849,0.849,0.849,0.849,0.849,0.848,0.848,0.848,0.848,0.847,0.846,0.845,0.844,0.842,0.841,0.84,0.839,0.839,0.839,0.838,0.839,0.84,0.841,0.842,0.842,0.844,0.846,0.846,0.847,0.847,0.848,0.848,0.848,0.848,0.848,0.847,0.846,0.845,0.845,0.844,0.842,0.842,0.841,0.841,0.84,0.84,0.84,0.839,0.839,0.839,0.839,0.839,0.84,0.84,0.842,0.844,0.845,0.846,0.847,0.849,0.849,0.851,0.852,0.853,0.853,0.854,0.855,0.856,0.859,0.861,0.865,0.867,0.868,0.868,0.87,0.871,0.871,0.87,0.867,0.865,0.862,0.859,0.854,0.851,0.847,0.845,0.842,0.841,0.84,0.84,0.84,0.84,0.842,0.844,0.845,0.848,0.851,0.853,0.856,0.859,0.859
1.081,1.079,1.077,1.077,1.077,1.077,1.077,1.077,1.077,1.077,1.077,1.079,1.079,1.079,1.081,1.081,1.083,1.083,1.083,1.083,1.083,1.083,1.079,1.079,1.077,1.077,1.075,1.075,1.075,1.075,1.075,1.075,1.075,1.075,1.075,1.075,1.073,1.073,1.071,1.071,1.073,1.073,1.075,1.075,1.077,1.079,1.083,1.084,1.088,1.092,1.096,1.098,1.104,1.108,1.112,1.116,1.12,1.124,1.128,1.13,1.134,1.138,1.14,1.14,1.145,1.147,1.149,1.151,1.155,1.16,1.164,1.166,1.171,0,0,0,0,0,0,0,0,0,0,0,1.207,1.209,1.212,1.214,1.217,1.209,1.209,1.205,1.195,1.188,1.186,1.184,1.182,1.179,1.179,1.182,1.182,1.186,1.188,1.186,1.186,0,0,1.191,1.191,1.184,1.175,1.171,1.164,1.155,1.147,1.138,1.13,1.122,1.116,1.11,0,0,1.1,1.1,1.098,1.1,1.1,0,0,0,0,0,0,0,1.112,1.112,0,0,0,0,0,1.102,0,0,1.098,0,0,1.094,1.094,1.094,1.096,1.098,1.098,1.102,1.102,1.106,1.106,1.106,1.106,1.106,1.106,1.104,1.102,1.098,1.096,1.094,1.092,1.092,1.088,1.086,1.084,1.083,1.084,1.084,1.086,1.086,1.086,1.09,1.094,1.098,1.102,1.104,1.104,1.106,1.108,1.112,1.11,1.108,1.108,1.108,1.106,1.104,1.1,1.094,1.088,1.086,1.083,1.084,1.083,1.081,1.081,1.081,1.081,1.079,1.079,1.079,1.077,1.077,1.075,1.073,1.073,1.073,1.075,1.077,1.075,1.075,1.075,1.077,1.079,1.079,1.081,1.079,1.081,1.081,1.081,1.081,1.081,1.081,1.079,1.077,1.075,1.073,1.073,1.073,1.073,1.075,1.075,1.075,1.075,1.077,1.075,1.075,1.075,1.075,1.075,1.075,1.075,1.075,1.075,1.075,1.073,1.071,1.069,1.068,1.066,1.064,1.062,1.058,1.055,1.05,1.037,0,0,0,0.948,0.931,0.92,0.912,0.908,0.904,0.9,0.897,0.894,0.894,0.892,0.892,0.894,0.894,0.894,0.894,0.896,0.897,0.899,0.899,0.9,0.9,0.901,0.903,0.903,0.904,0.909,0.915,0.921,0.93,0.938,0.954,0.974,0.989,0,1.015,1.025,1.034,1.042,1.048,1.053,1.057,1.058,1.062,1.064,1.066,1.066,1.069,1.068,1.068,1.066,1.066,1.066,1.066,1.066,1.066,1.066,1.066,1.068,1.068,1.069,1.069,1.071,1.071,1.071,1.071,1.073,1.073,1.073,1.073,1.071,1.071,1.069,1.069,1.069,1.068,1.068,1.068,1.068,1.066,1.066,1.066,1.066,1.066,1.066,1.066,1.066,1.066,1.066,1.066,1.068,1.068,1.068,1.068,1.069,1.071,1.071,1.071,1.071,1.071,1.071,1.069,1.069,1.069,1.068,1.066,1.066,1.066,1.064,1.064,1.064,1.064,1.062,1.062,1.062,1.062,1.062,1.062,1.064,1.064,1.064,1.064,1.062,1.064,1.064,1.064,1.064,1.066,1.066,1.068,1.068,1.069,1.069,1.069,1.071,1.071,1.071,1.073,1.073,1.073,1.073,1.073,1.071,1.071,1.069,1.069,1.069,1.068,0,0,0,0,0,0,0,0,0,0,0.735,0.735,0.735,0.733,0.731,0.729,0.728,0.726,0.723,0.722,0.72,0.718,0.718,0.718,0.718,0.719,0.72,0.722,0.723,0.724,0.727,0.739,0.753,0.767,0,0.8,0.815,0.83,0.835,0.836,0.838,0.84,0.84,0.841,0.842,0.842,0.844,0.844,0.844,0.842,0.842,0.842,0.841,0.841,0.84,0.84,0.839,0.838,0.837,0.836,0.835,0.835,0.833,0.833,0.833,0.833,0.835,0.836,0.836,0.837,0.838,0.839,0.84,0.841,0.842,0.844,0.844,0.845,0.845,0.845,0.844,0.844,0.842,0.842,0.841,0.84,0.839,0.839,0.839,0.837,0.837,0.837,0.837,0.836,0.836,0.835,0.835,0.835,0.836,0.835,0.836,0.836,0.838,0.838,0.839,0.84,0.84,0.842,0.842,0.844,0.846,0.846,0.847,0.849,0.852,0.854,0.856,0.859,0.861,0.862,0.862,0.865,0.865,0.864,0.861,0.859,0.856,0.853,0.848,0.845,0.841,0.839,0.837,0.836,0.836,0.835,0.836,0.836,0.838,0.839,0.842,0.845,0.848,0.852,0.854,0.856,0.858
1.071,1.071,1.069,1.069,1.069,1.069,1.069,1.069,1.069,1.069,1.069,1.069,1.071,1.071,1.073,1.073,1.073,1.073,1.073,1.073,1.073,1.071,1.071,1.069,1.069,1.068,1.066,1.066,1.066,1.068,1.068,1.068,1.068,1.068,1.068,1.066,1.066,1.066,1.064,1.064,1.064,1.066,1.066,1.068,1.069,1.071,1.073,1.077,1.079,1.084,1.088,1.092,1.098,1.104,1.108,1.114,1.118,1.122,1.126,1.13,1.132,1.136,1.136,1.136,1.14,1.142,1.145,1.147,1.151,1.157,1.16,1.164,0,0,0,0,0,0,0,0,0,0,0,0,0,1.214,1.217,1.219,1.219,1.212,0,0,0,0,0,0,1.171,1.168,1.173,1.175,1.179,1.184,1.188,1.186,1.188,1.188,1.191,1.191,1.186,1.177,1.166,1.162,1.153,1.142,1.13,1.122,1.112,1.106,1.1,1.096,1.092,1.088,1.086,1.086,1.086,1.086,1.088,1.092,1.092,1.096,1.098,1.102,1.106,1.106,1.106,1.106,1.104,1.104,1.1,1.098,1.096,1.094,1.092,1.092,1.09,1.09,1.086,1.086,1.088,1.088,1.09,1.09,1.092,1.094,1.094,1.098,1.098,1.098,1.096,1.096,1.094,1.092,1.09,1.088,1.086,1.083,1.083,1.081,1.079,1.077,1.077,1.075,1.075,1.075,1.077,1.079,1.081,1.083,1.086,1.092,1.096,1.098,1.1,1.102,1.104,1.108,1.106,1.106,1.104,1.104,1.104,1.102,1.098,1.092,1.086,1.083,1.079,1.079,1.075,1.075,1.075,1.073,1.071,1.069,1.071,1.069,1.068,1.068,1.066,1.064,1.062,1.064,1.064,1.066,1.066,1.066,1.068,1.068,1.071,1.071,1.073,1.073,1.073,1.073,1.075,1.073,1.071,1.071,1.069,1.068,1.066,1.064,1.064,1.064,1.066,1.066,1.066,1.066,1.068,1.068,1.068,1.068,1.068,1.068,1.066,1.068,1.068,1.068,1.068,1.068,1.066,1.066,1.064,1.062,1.06,1.058,1.057,1.053,1.048,1.042,1.035,1.017,0.997,0,0.957,0.938,0.928,0.917,0.911,0.905,0.9,0.897,0.894,0.892,0.892,0.892,0.892,0.892,0.894,0.895,0.896,0.897,0.899,0.9,0.9,0.901,0.903,0.903,0.904,0.905,0.911,0.916,0.924,0,0.942,0.96,0.978,0.994,1.007,1.015,1.023,1.029,1.034,1.039,1.044,1.048,1.05,1.053,1.055,1.057,1.058,1.06,1.062,1.06,1.06,1.06,1.06,1.058,1.058,1.058,1.06,1.058,1.06,1.062,1.062,1.062,1.064,1.064,1.064,1.066,1.066,1.066,1.066,1.066,1.064,1.064,1.064,1.064,1.064,1.064,1.064,1.064,1.062,1.062,1.062,1.062,1.064,1.064,1.062,1.062,1.062,1.062,1.062,1.062,1.064,1.064,1.064,1.064,1.064,1.064,1.064,1.064,1.064,1.064,1.064,1.064,1.062,1.062,1.062,1.06,1.06,1.06,1.058,1.058,1.058,1.057,1.057,1.057,1.055,1.055,1.055,1.055,1.057,1.055,1.057,1.057,1.055,1.057,1.057,1.057,1.057,1.058,1.058,1.06,1.06,1.062,1.064,1.064,1.064,1.066,1.066,1.068,1.068,1.068,1.066,1.066,1.066,1.066,1.066,1.064,1.066,1.064,1.066,0,0,0,0,0,0,0,0,0,0,0.736,0.735,0.734,0.732,0.73,0.728,0.726,0.723,0.722,0.72,0.718,0.718,0.718,0.718,0.719,0.721,0.722,0.723,0.725,0.728,0.742,0.756,0,0,0.8,0.814,0.826,0.83,0.832,0.833,0.835,0.836,0.836,0.838,0.838,0.838,0.839,0.838,0.838,0.837,0.837,0.836,0.836,0.835,0.833,0.832,0.831,0.83,0.829,0.829,0.829,0.828,0.828,0.828,0.828,0.829,0.83,0.831,0.832,0.833,0.835,0.836,0.837,0.838,0.839,0.839,0.84,0.84,0.84,0.84,0.839,0.839,0.838,0.837,0.837,0.836,0.836,0.835,0.835,0.833,0.833,0.832,0.832,0.832,0.831,0.83,0.83,0.83,0.831,0.831,0.831,0.832,0.831,0.832,0.833,0.833,0.835,0.836,0.837,0.838,0.839,0.84,0.842,0.845,0.847,0.849,0.852,0.853,0.854,0.855,0.858,0.858,0.856,0.854,0.852,0.849,0.846,0.842,0.839,0.836,0.833,0.831,0.83,0.83,0.83,0.831,0.831,0.833,0.835,0.838,0.841,0.846,0.849,0.852,0.855,0.856
1.066,1.064,1.064,1.062,1.062,1.062,1.064,1.062,1.062,1.062,1.062,1.062,1.062,1.062,1.064,1.064,1.064,1.064,1.064,1.064,1.064,1.062,1.062,1.06,1.06,1.058,1.058,1.058,1.058,1.06,1.06,1.06,1.06,1.06,1.06,1.06,1.058,1.058,1.058,1.058,1.058,1.058,1.058,1.06,1.062,1.064,1.068,1.069,1.073,1.077,1.083,1.088,1.094,1.1,1.106,1.11,1.116,1.122,1.128,1.132,1.132,1.134,1.134,1.136,1.136,1.138,1.14,1.14,1.147,1.151,1.155,0,0,0,0,0,0,0,0,0,0,0,0,0,0,0,1.224,1.219,1.217,0,0,0,0,0,0,0,0,0,1.164,1.171,1.175,1.182,1.188,1.186,1.186,1.191,1.186,1.184,1.175,1.166,1.155,1.147,1.14,1.126,1.114,1.106,1.098,1.092,1.088,1.084,1.081,1.079,1.077,1.077,1.077,1.079,1.081,1.084,1.086,1.09,1.094,1.098,1.1,1.1,1.1,1.102,1.098,1.098,1.094,1.092,1.09,1.088,1.088,1.086,1.084,1.083,1.081,1.083,1.083,1.084,1.084,1.084,1.086,1.086,1.09,1.09,1.092,1.088,1.086,1.084,1.084,1.081,1.079,1.077,1.075,1.073,1.073,1.071,1.071,1.069,1.069,1.068,1.068,1.068,1.069,1.071,1.071,1.073,1.079,1.083,1.086,1.09,1.094,1.096,1.1,1.102,1.104,1.102,1.1,1.1,1.1,1.098,1.096,1.088,1.084,1.081,1.077,1.075,1.073,1.069,1.068,1.066,1.064,1.064,1.062,1.06,1.057,1.057,1.057,1.055,1.053,1.055,1.055,1.057,1.058,1.058,1.06,1.06,1.064,1.064,1.066,1.066,1.066,1.066,1.066,1.064,1.064,1.062,1.062,1.06,1.058,1.057,1.057,1.058,1.058,1.058,1.058,1.06,1.062,1.062,1.062,1.062,1.06,1.06,1.06,1.06,1.06,1.06,1.062,1.062,1.06,1.058,1.057,1.057,1.053,1.051,1.05,1.046,1.039,1.034,1.029,1.013,0.996,0.978,0.962,0.944,0.933,0.92,0.913,0.907,0.901,0.897,0.894,0.892,0.892,0.892,0.892,0.892,0.894,0.895,0.896,0.897,0.9,0.9,0.901,0.903,0.904,0.904,0.905,0.907,0.913,0.919,0,0,0.948,0,0.984,0.997,1.008,1.013,1.018,1.023,1.027,1.032,1.035,1.037,1.039,1.042,1.044,1.048,1.051,1.053,1.053,1.053,1.053,1.053,1.053,1.053,1.053,1.051,1.051,1.051,1.051,1.053,1.053,1.053,1.055,1.057,1.057,1.057,1.058,1.058,1.058,1.058,1.058,1.058,1.058,1.058,1.058,1.06,1.06,1.06,1.06,1.06,1.058,1.058,1.058,1.058,1.058,1.058,1.058,1.057,1.057,1.058,1.058,1.058,1.057,1.057,1.058,1.058,1.058,1.058,1.058,1.058,1.057,1.057,1.055,1.055,1.055,1.055,1.055,1.053,1.051,1.051,1.051,1.051,1.05,1.05,1.05,1.048,1.048,1.048,1.05,1.05,1.05,1.05,1.048,1.048,1.05,1.05,1.051,1.05,1.051,1.051,1.053,1.055,1.057,1.057,1.058,1.058,1.058,1.06,1.06,1.06,1.06,1.06,1.058,1.058,1.058,1.058,1.06,1.06,1.06,0,0,0,0,0,0,0,0,0,0,0.737,0.737,0.735,0.733,0.731,0.728,0.726,0.724,0.722,0.72,0.718,0.718,0.718,0.718,0.719,0.722,0.723,0.724,0.725,0.731,0.742,0.757,0,0,0.799,0.812,0.822,0.826,0.828,0.829,0.83,0.831,0.831,0.833,0.833,0.833,0.833,0.833,0.832,0.832,0.832,0.831,0.831,0.829,0.828,0.827,0.826,0.825,0.823,0.823,0.823,0.823,0.823,0.823,0.825,0.826,0.827,0.828,0.828,0.829,0.831,0.832,0.833,0.833,0.835,0.836,0.836,0.836,0.836,0.835,0.835,0.833,0.833,0.832,0.832,0.832,0.831,0.831,0.83,0.83,0.829,0.829,0.829,0.828,0.828,0.827,0.827,0.827,0.827,0.827,0.826,0.826,0.826,0.826,0.827,0.827,0.828,0.828,0.83,0.831,0.833,0.835,0.836,0.838,0.84,0.842,0.844,0.846,0.847,0.848,0.849,0.849,0.848,0.847,0.845,0.842,0.839,0.836,0.833,0.83,0.828,0.826,0.826,0.826,0.826,0.826,0.827,0.828,0.83,0.833,0.838,0.842,0.846,0.849,0.852,0.853
1.058,1.057,1.057,1.057,1.057,1.057,1.057,1.057,1.057,1.055,1.055,1.055,1.057,1.055,1.055,1.055,1.055,1.057,1.055,1.055,1.055,1.053,1.053,1.051,1.051,1.051,1.05,1.05,1.051,1.051,1.053,1.053,1.053,1.053,1.053,1.053,1.053,1.053,1.051,1.053,1.053,1.053,1.053,1.055,1.055,1.057,1.06,1.062,1.066,1.071,1.075,1.081,1.088,1.096,1.1,1.108,1.116,1.122,1.126,1.13,1.13,1.134,1.132,1.134,1.136,1.136,1.138,1.138,1.142,1.151,0,0,0,0,0,0,0,0,0,0,0,0,0,0,0,0,1.2,0,0,0,0,0,0,0,0,0,0,0,1.155,1.164,1.171,1.177,1.184,1.179,1.179,1.179,1.175,1.168,1.16,1.147,1.14,1.13,1.124,1.112,1.1,0,1.084,1.081,1.075,0,1.071,1.069,1.068,1.068,1.069,1.071,1.073,1.077,1.081,1.084,1.088,1.092,1.096,1.098,1.096,1.098,1.096,1.094,1.092,1.086,1.086,1.084,1.083,1.081,1.081,1.079,1.077,1.079,1.077,1.079,1.081,1.081,1.081,1.083,1.083,1.084,1.084,1.083,1.081,1.079,1.075,1.075,1.071,1.069,1.068,1.068,1.066,1.066,1.064,1.064,1.062,1.062,1.062,1.062,1.064,1.066,1.066,1.068,1.073,1.077,1.081,1.084,1.086,1.09,1.094,1.098,1.1,1.098,1.096,1.096,1.096,1.096,1.092,1.088,1.083,1.079,1.075,1.073,1.069,1.066,1.062,1.06,1.058,1.055,1.053,1.051,1.05,1.05,1.05,1.048,1.048,1.048,1.048,1.05,1.051,1.051,1.053,1.053,1.055,1.057,1.058,1.057,1.058,1.058,1.058,1.057,1.057,1.055,1.055,1.053,1.051,1.051,1.05,1.051,1.051,1.051,1.053,1.053,1.055,1.055,1.055,1.055,1.053,1.053,1.053,1.053,1.055,1.055,1.055,1.055,1.053,1.053,1.051,1.05,1.048,1.044,1.042,1.037,1.034,1.029,1.023,1.01,0.996,0.981,0.964,0.948,0.935,0.924,0.915,0.908,0.901,0.897,0.894,0.891,0.891,0.891,0.891,0.892,0.894,0.895,0.896,0.897,0.9,0.901,0.903,0.904,0.905,0.907,0.909,0.909,0.916,0.923,0,0,0.951,0.968,0.983,0.996,1.004,1.008,1.013,1.015,1.018,1.023,1.027,1.029,1.03,1.034,1.037,1.039,1.042,1.044,1.046,1.046,1.046,1.046,1.046,1.046,1.046,1.046,1.044,1.046,1.044,1.046,1.046,1.046,1.048,1.048,1.05,1.051,1.051,1.051,1.051,1.051,1.051,1.051,1.053,1.053,1.053,1.053,1.053,1.053,1.057,1.057,1.055,1.057,1.057,1.057,1.055,1.055,1.055,1.055,1.053,1.055,1.053,1.053,1.051,1.051,1.053,1.051,1.051,1.051,1.051,1.05,1.05,1.05,1.048,1.048,1.048,1.048,1.046,1.046,1.046,1.046,1.044,1.042,1.042,1.042,1.042,1.041,1.041,1.041,1.042,1.042,1.042,1.044,1.042,1.042,1.042,1.044,1.044,1.042,1.044,1.044,1.046,1.048,1.048,1.05,1.051,1.051,1.051,1.053,1.051,1.051,1.051,1.051,1.051,1.051,1.051,1.053,1.053,1.055,1.055,1.057,0,0,0,0,0,0,0,0,0.741,0.74,0.738,0.736,0.734,0.731,0.729,0.727,0.724,0.723,0.721,0.719,0.718,0.718,0.719,0.72,0.722,0.723,0.724,0.725,0.732,0.743,0.756,0,0.784,0.797,0.808,0.819,0.822,0.823,0.826,0.826,0.827,0.828,0.829,0.83,0.829,0.829,0.829,0.828,0.828,0.827,0.826,0.825,0.823,0.822,0.821,0.82,0.82,0.819,0.819,0.819,0.82,0.82,0.821,0.821,0.823,0.823,0.825,0.826,0.827,0.828,0.829,0.829,0.83,0.831,0.831,0.831,0.831,0.831,0.83,0.83,0.829,0.829,0.829,0.829,0.828,0.828,0.827,0.826,0.826,0.826,0.825,0.825,0.825,0.825,0.823,0.823,0.822,0.822,0.822,0.821,0.821,0.821,0.821,0.821,0.822,0.822,0.822,0.825,0.826,0.827,0.828,0.829,0,0.832,0.835,0.837,0.838,0.839,0.84,0.84,0.841,0.84,0.838,0.837,0.835,0.832,0.829,0.827,0.823,0.821,0.82,0.82,0.819,0.82,0.821,0.821,0.822,0.826,0.829,0.833,0.837,0.84,0.844,0.846,0.847
1.051,1.05,1.05,1.05,1.05,1.05,1.05,1.05,1.05,1.05,1.05,1.05,1.05,1.048,1.048,1.048,1.048,1.048,1.048,1.048,1.046,1.046,1.044,1.044,1.044,1.042,1.042,1.042,1.044,1.044,1.046,1.046,1.046,1.046,1.046,1.046,1.048,1.046,1.046,1.046,1.046,1.048,1.048,1.048,1.048,1.05,1.051,1.053,1.057,1.062,1.068,1.073,1.081,1.088,1.096,1.104,1.112,1.12,1.124,1.128,1.128,1.13,1.13,1.13,1.132,1.132,1.136,1.136,1.14,1.145,0,0,0,0,0,0,0,0,0,0,0,0,0,0,0,0,1.145,1.14,0,0,0,0,0,0,0,0,1.116,1.126,0,1.155,1.162,1.168,1.177,1.173,1.173,1.171,1.162,1.151,1.142,1.13,0,0,0,1.096,1.084,1.077,1.073,1.068,1.064,1.062,1.062,1.06,1.06,1.06,1.062,1.064,1.068,1.069,1.073,1.077,1.083,1.088,1.09,1.094,1.094,1.094,1.092,1.09,1.086,1.084,1.081,1.081,1.079,1.077,1.077,1.073,1.073,1.071,1.073,1.073,1.075,1.075,1.075,1.077,1.077,1.077,1.079,1.077,1.073,1.071,1.071,1.068,1.064,1.062,1.062,1.06,1.058,1.058,1.058,1.058,1.057,1.055,1.057,1.058,1.057,1.058,1.06,1.062,1.064,1.068,1.071,1.077,1.081,1.084,1.088,1.092,1.092,1.092,1.094,1.094,1.094,1.094,1.09,1.084,1.081,1.077,1.073,1.069,1.066,1.06,1.058,1.055,1.051,1.05,1.048,1.044,1.044,1.042,1.042,1.042,1.041,1.041,1.041,1.042,1.042,1.044,1.044,1.046,1.048,1.048,1.05,1.05,1.05,1.05,1.05,1.05,1.05,1.05,1.048,1.046,1.046,1.044,1.044,1.044,1.044,1.044,1.046,1.046,1.048,1.048,1.048,1.048,1.046,1.046,1.046,1.048,1.048,1.048,1.05,1.05,1.048,1.048,1.046,1.044,1.042,1.041,1.037,1.034,1.029,1.023,1.018,1.007,0.996,0.983,0,0.953,0.94,0.927,0.916,0.908,0.901,0.897,0.894,0.891,0.89,0.89,0.891,0.892,0.892,0.895,0.896,0.899,0.901,0.903,0.904,0.905,0.908,0.909,0.912,0.913,0.92,0.926,0,0,0,0.968,0.981,0.992,0.999,1.002,1.007,1.008,1.012,1.015,1.018,1.022,1.023,1.027,1.03,1.034,1.035,1.039,1.039,1.039,1.039,1.041,1.041,1.041,1.039,1.039,1.037,1.037,1.037,1.039,1.039,1.039,1.039,1.041,1.042,1.042,1.044,1.044,1.044,1.044,1.044,1.046,1.046,1.048,1.048,1.048,1.048,1.048,1.05,1.051,1.051,1.051,1.051,1.051,1.05,1.05,1.05,1.05,1.05,1.048,1.048,1.048,1.046,1.046,1.046,1.046,1.044,1.044,1.042,1.042,1.041,1.041,1.041,1.041,1.039,1.039,1.039,1.039,1.037,1.037,1.037,1.035,1.035,1.035,1.035,1.034,1.034,1.035,1.035,1.035,1.035,1.037,1.037,1.037,1.037,1.037,1.037,1.037,1.037,1.039,1.039,1.041,1.042,1.042,1.044,1.044,1.046,1.046,1.044,1.044,1.044,1.044,1.044,1.044,1.044,1.044,1.046,1.048,1.048,0,0,0,0,0,0,0,0,0.745,0.743,0.742,0.739,0.736,0.734,0.732,0.729,0.727,0.725,0.723,0.721,0.72,0.719,0.719,0.719,0.72,0.722,0.723,0.725,0.726,0.733,0.744,0.756,0,0.783,0.795,0.805,0.816,0.819,0.82,0.821,0.823,0.823,0.825,0.825,0.825,0.826,0.825,0.823,0.823,0.823,0.822,0.821,0.819,0.818,0.817,0.816,0.816,0.815,0.815,0.815,0.816,0.817,0.817,0.818,0.819,0.821,0.822,0.822,0.822,0.823,0.825,0.826,0.826,0.828,0.828,0.827,0.827,0.826,0.826,0.826,0.825,0.825,0.823,0.823,0.823,0.822,0.822,0.822,0.821,0.821,0.821,0.82,0.82,0.82,0.82,0.819,0.819,0.819,0.819,0.818,0.818,0.818,0.817,0.817,0.817,0.818,0.818,0.818,0.82,0.82,0.821,0.822,0.822,0.823,0.826,0.828,0.829,0.829,0.83,0.831,0.831,0.831,0.83,0.829,0.827,0.826,0.823,0.821,0.818,0.816,0.815,0.814,0.815,0.815,0.815,0.815,0.816,0.818,0.819,0.822,0.827,0.83,0.835,0.837,0.839,0.84
1.046,1.044,1.044,1.044,1.044,1.042,1.044,1.042,1.042,1.042,1.042,1.042,1.042,1.042,1.042,1.042,1.041,1.041,1.041,1.041,1.041,1.039,1.037,1.037,1.037,1.035,1.035,1.037,1.037,1.037,1.039,1.039,1.041,1.041,1.041,1.041,1.041,1.041,1.041,1.041,1.041,1.042,1.041,1.042,1.042,1.042,1.044,1.046,1.05,1.055,1.06,1.066,1.071,1.081,1.088,1.098,1.106,1.114,1.12,1.122,1.122,1.124,1.124,1.126,1.126,0,1.13,0,0,0,0,0,0,0,0,0,0,0,0,0,0,0,0,0,0,0,0,0,1.092,0,0,0,0,1.053,1.06,1.079,1.096,1.112,0,1.14,1.151,1.157,1.166,1.162,1.16,1.153,1.145,1.132,0,0,0,0,1.09,1.081,1.069,1.064,1.06,1.057,1.055,1.053,1.053,1.053,1.053,1.055,1.057,1.058,1.062,1.066,1.071,1.075,1.081,1.086,1.088,1.092,1.094,1.092,1.092,1.09,1.086,1.083,1.081,1.081,1.077,1.075,1.073,1.071,1.069,1.069,1.069,1.069,1.069,1.069,1.071,1.071,1.071,1.071,1.073,1.069,1.068,1.064,1.062,1.06,1.058,1.057,1.055,1.053,1.053,1.053,1.053,1.051,1.051,1.051,1.051,1.051,1.053,1.055,1.055,1.057,1.058,1.062,1.064,1.069,1.073,1.077,1.083,1.086,1.088,1.09,1.09,1.09,1.09,1.09,1.086,1.083,1.077,1.073,1.069,1.066,1.062,1.057,1.053,1.05,1.048,1.044,1.041,1.039,1.037,1.037,1.035,1.035,1.034,1.034,1.035,1.035,1.035,1.037,1.037,1.039,1.041,1.041,1.042,1.042,1.044,1.044,1.044,1.044,1.044,1.044,1.044,1.041,1.041,1.041,1.039,1.039,1.039,1.039,1.039,1.039,1.041,1.041,1.041,1.041,1.039,1.039,1.041,1.041,1.041,1.041,1.042,1.042,1.042,1.042,1.041,1.039,1.037,1.035,1.032,1.029,1.025,1.022,1.015,1.008,0.997,0.986,0.972,0.957,0.944,0.93,0.917,0.908,0.903,0.897,0.894,0.891,0.891,0.89,0.891,0.891,0.892,0.894,0.896,0.899,0.901,0.904,0.907,0.908,0.911,0.912,0.915,0.917,0.924,0.93,0.937,0.945,0.956,0.968,0,0,0.994,0.997,1.002,1.002,1.007,1.01,1.013,1.017,1.018,1.022,1.025,1.027,1.03,1.032,1.034,1.034,1.034,1.034,1.034,1.034,1.034,1.032,1.032,1.032,1.032,1.032,1.032,1.032,1.032,1.034,1.034,1.035,1.037,1.037,1.037,1.037,1.039,1.039,1.039,1.041,1.041,1.041,1.041,1.042,1.044,1.044,1.044,1.044,1.046,1.044,1.044,1.044,1.044,1.044,1.044,1.042,1.042,1.042,1.041,1.039,1.039,1.037,1.035,1.035,1.034,1.034,1.032,1.032,1.032,1.032,1.032,1.032,1.032,1.032,1.03,1.03,1.029,1.029,1.029,1.029,1.027,1.027,1.027,1.029,1.03,1.03,1.03,1.032,1.032,1.032,1.03,1.032,1.03,1.032,1.032,1.032,1.032,1.034,1.035,1.035,1.037,1.037,1.037,1.039,1.039,1.037,1.037,1.037,1.035,1.037,1.037,1.039,1.039,1.041,0,0,0,0,0,0,0,0,0.751,0.748,0.745,0.742,0.74,0.738,0.735,0.732,0.73,0.728,0.725,0.724,0.722,0.721,0.72,0.719,0.72,0.721,0.723,0.724,0.726,0.727,0.733,0.743,0.754,0,0.78,0.791,0.802,0.812,0.816,0.817,0.817,0.818,0.819,0.819,0.82,0.82,0.819,0.819,0.818,0.818,0.818,0.817,0.815,0.814,0.813,0.812,0.81,0.81,0.809,0.81,0.812,0.813,0.814,0.815,0.816,0.817,0.819,0.82,0.82,0.82,0.821,0.822,0.823,0.822,0.823,0.823,0.822,0.821,0.82,0.819,0.818,0.818,0.817,0.817,0.817,0.817,0.818,0.818,0.817,0.817,0.816,0.816,0.816,0.816,0.816,0.816,0.816,0.815,0.815,0.815,0.815,0.814,0.814,0.813,0.814,0.813,0.814,0.814,0.813,0.815,0.815,0.816,0.816,0.816,0.817,0.818,0.819,0.82,0.82,0.821,0.821,0.822,0.822,0.821,0.819,0.818,0.817,0.815,0.814,0.812,0.809,0.808,0.808,0.808,0.808,0.808,0.809,0.81,0.812,0.814,0.817,0.82,0.823,0.827,0.829,0.831,0.832
1.039,1.039,1.039,1.037,1.035,1.035,1.035,1.035,1.037,1.035,1.035,1.035,1.035,1.035,1.035,1.035,1.035,1.034,1.034,1.034,1.032,1.032,1.032,1.03,1.03,1.03,1.03,1.03,1.03,1.032,1.034,1.034,1.034,1.035,1.035,1.035,1.035,1.035,1.035,1.035,1.035,1.035,1.035,1.035,1.037,1.037,1.039,1.039,1.042,1.048,1.051,1.058,1.066,1.073,1.081,1.09,1.1,1.11,1.114,1.118,1.118,1.12,1.12,0,1.122,0,0,0,0,0,0,0,0,0,0,0,0,0,0,0,0,0,0,0,0,0,0,0,0,0,0,1.053,1.053,1.055,1.066,1.083,1.1,1.114,0,1.142,1.149,1.157,1.164,0,0,0,0,1.122,0,0,1.092,1.086,1.077,1.068,1.058,1.053,1.05,1.048,1.048,1.046,1.046,1.046,1.048,1.048,1.051,1.055,1.057,1.062,1.066,1.073,1.079,1.086,1.088,1.09,1.092,1.092,1.092,1.088,1.086,1.081,1.081,1.079,1.077,1.075,1.071,1.069,1.066,1.068,1.068,1.068,1.068,1.068,1.068,1.068,1.068,1.068,1.066,1.062,1.06,1.057,1.055,1.053,1.053,1.051,1.05,1.048,1.048,1.048,1.048,1.048,1.046,1.046,1.046,1.048,1.05,1.05,1.051,1.053,1.055,1.058,1.06,1.064,1.068,1.071,1.077,1.083,1.084,1.086,1.086,1.086,1.086,1.084,1.083,1.077,1.075,1.068,1.064,1.062,1.057,1.051,1.048,1.046,1.041,1.037,1.035,1.034,1.032,1.032,1.03,1.029,1.029,1.029,1.029,1.03,1.03,1.032,1.032,1.032,1.034,1.034,1.035,1.037,1.037,1.039,1.039,1.039,1.039,1.039,1.039,1.037,1.035,1.035,1.035,1.034,1.034,1.034,1.034,1.034,1.034,1.035,1.035,1.035,1.034,1.034,1.035,1.035,1.035,1.037,1.037,1.037,1.035,1.035,1.035,1.034,1.032,1.03,1.027,1.023,1.02,1.018,1.013,1.007,0.997,0.986,0.974,0.959,0.945,0.931,0.919,0.909,0.904,0.897,0.894,0.891,0.89,0.89,0.891,0.891,0.892,0.894,0.896,0.899,0.903,0.905,0.908,0.911,0.913,0.916,0.917,0.92,0.926,0.931,0.937,0.944,0.953,0.963,0,0.981,0.988,0.992,0.996,0.997,1,1.005,1.007,1.012,1.015,1.017,1.02,1.022,1.025,1.027,1.027,1.029,1.029,1.03,1.029,1.029,1.029,1.027,1.027,1.027,1.025,1.025,1.025,1.025,1.025,1.027,1.027,1.029,1.03,1.03,1.03,1.03,1.032,1.032,1.032,1.034,1.034,1.035,1.035,1.037,1.037,1.039,1.039,1.039,1.039,1.037,1.037,1.037,1.039,1.037,1.037,1.037,1.037,1.035,1.035,1.034,1.032,1.032,1.03,1.029,1.027,1.027,1.025,1.025,1.025,1.025,1.023,1.025,1.025,1.025,1.023,1.023,1.023,1.022,1.022,1.022,1.022,1.02,1.022,1.023,1.023,1.023,1.023,1.025,1.025,1.025,1.025,1.025,1.025,1.025,1.025,1.025,1.027,1.027,1.029,1.03,1.03,1.03,1.03,1.032,1.032,1.032,1.03,1.03,1.03,1.029,1.03,1.032,1.032,1.034,0,0,0,0,0,0,0,0,0.751,0.749,0.745,0.743,0.74,0.737,0.735,0.732,0.73,0.728,0.726,0.724,0.723,0.722,0.721,0.721,0.721,0.722,0.723,0.724,0.726,0.727,0.734,0.742,0.752,0,0.775,0.785,0.795,0.804,0.808,0.81,0.813,0.814,0.815,0.815,0.815,0.815,0.815,0.814,0.813,0.813,0.812,0.81,0.809,0.808,0.807,0.806,0.805,0.805,0.805,0.805,0.807,0.808,0.81,0.812,0.814,0.815,0.817,0.818,0.819,0.819,0.82,0.821,0.82,0.82,0.82,0.819,0.818,0.816,0.815,0.813,0.812,0.81,0.81,0.81,0.81,0.812,0.812,0.813,0.813,0.812,0.812,0.812,0.812,0.812,0.812,0.812,0.81,0.812,0.81,0.81,0.81,0.81,0.809,0.809,0.808,0.809,0.809,0.808,0.808,0.809,0.809,0.809,0.809,0.809,0.809,0.81,0.812,0.81,0.812,0.813,0.813,0.813,0.813,0.813,0.812,0.81,0.809,0.808,0.806,0.805,0.804,0.804,0.803,0.804,0.804,0.804,0.805,0.805,0.807,0.808,0.812,0.815,0.817,0.82,0.822,0.823,0.825
1.034,1.032,1.032,1.03,1.03,1.029,1.03,1.03,1.03,1.03,1.029,1.029,1.029,1.029,1.03,1.03,1.029,1.027,1.027,1.027,1.027,1.025,1.025,1.025,1.025,1.025,1.025,1.025,1.027,1.029,1.029,1.03,1.03,1.03,1.032,1.03,1.03,1.03,1.03,1.03,1.03,1.03,1.03,1.03,1.032,1.032,1.034,1.035,1.037,1.041,1.046,1.051,1.058,1.066,1.075,1.083,1.092,1.104,1.108,1.114,1.114,1.114,1.114,1.112,0,0,0,0,0,0,0,0,0,0,0,0,0,0,0,0,0,0,0,0,0,0,0,0,0,0,0,0,1.048,1.055,1.064,1.079,1.096,1.108,0,1.136,1.145,1.149,1.151,0,0,1.13,1.118,1.104,1.092,1.083,1.075,1.069,1.062,1.055,1.048,1.044,1.042,1.041,1.041,1.042,1.041,1.042,1.042,1.044,1.046,1.048,1.051,1.055,1.06,1.069,1.075,1.083,1.084,1.088,1.092,1.092,1.092,1.088,1.086,1.083,1.079,1.079,1.077,1.073,1.071,1.068,1.066,1.066,1.068,1.068,1.064,1.064,1.064,1.064,1.064,1.064,1.06,1.058,1.055,1.053,1.051,1.05,1.048,1.046,1.046,1.044,1.042,1.044,1.044,1.042,1.042,1.044,1.044,1.044,1.046,1.046,1.048,1.05,1.051,1.055,1.057,1.058,1.062,1.066,1.071,1.077,1.079,1.079,1.081,1.081,1.079,1.077,1.075,1.073,1.069,1.064,1.058,1.057,1.051,1.046,1.042,1.039,1.035,1.034,1.03,1.029,1.029,1.027,1.027,1.025,1.025,1.023,1.025,1.025,1.027,1.029,1.027,1.029,1.029,1.029,1.03,1.03,1.032,1.034,1.034,1.034,1.034,1.034,1.034,1.034,1.032,1.03,1.03,1.029,1.029,1.027,1.027,1.029,1.03,1.03,1.03,1.03,1.03,1.03,1.03,1.03,1.03,1.03,1.03,1.03,1.029,1.029,1.029,1.027,1.025,1.023,1.022,1.018,1.017,1.015,1.012,1.005,0.996,0.984,0.974,0.96,0.945,0.931,0.919,0.909,0.904,0.899,0.894,0.891,0.89,0.89,0.89,0.891,0.892,0.894,0.896,0.899,0.903,0.907,0.909,0.913,0.916,0.919,0.921,0.924,0.928,0.934,0.937,0.942,0.951,0.96,0.968,0.975,0.981,0.988,0.991,0.994,0.997,1,1.004,1.007,1.008,1.01,1.013,1.015,1.018,1.02,1.022,1.022,1.023,1.023,1.023,1.022,1.022,1.02,1.02,1.02,1.02,1.018,1.018,1.018,1.018,1.02,1.02,1.022,1.023,1.023,1.023,1.023,1.023,1.025,1.025,1.027,1.027,1.029,1.029,1.03,1.03,1.032,1.032,1.032,1.032,1.032,1.032,1.032,1.032,1.032,1.032,1.032,1.03,1.03,1.029,1.029,1.027,1.025,1.023,1.022,1.02,1.02,1.02,1.02,1.018,1.018,1.018,1.018,1.018,1.02,1.018,1.017,1.017,1.017,1.017,1.017,1.015,1.015,1.015,1.017,1.017,1.017,1.018,1.018,1.018,1.018,1.018,1.018,1.018,1.018,1.018,1.02,1.018,1.02,1.022,1.023,1.023,1.023,1.023,1.023,1.023,1.023,1.023,1.023,1.023,1.023,1.025,1.025,1.027,1.029,0,0,0,0,0,0,0,0.754,0.751,0.748,0.745,0.742,0.741,0.737,0.735,0.732,0.73,0.728,0.726,0.725,0.723,0.723,0.722,0.722,0.722,0.723,0.723,0.725,0.726,0.727,0.734,0.741,0.749,0,0.768,0.778,0.788,0.797,0.802,0.805,0.807,0.809,0.81,0.81,0.81,0.81,0.81,0.809,0.808,0.807,0.807,0.805,0.804,0.803,0.802,0.801,0.801,0.801,0.801,0.801,0.803,0.805,0.806,0.808,0.81,0.813,0.815,0.817,0.818,0.819,0.819,0.82,0.82,0.818,0.818,0.816,0.814,0.812,0.808,0.807,0.805,0.804,0.805,0.804,0.805,0.806,0.806,0.807,0.807,0.807,0.807,0.807,0.807,0.807,0.807,0.807,0.806,0.806,0.806,0.806,0.806,0.806,0.806,0.805,0.805,0.805,0.805,0.805,0.805,0.805,0.805,0.805,0.805,0.804,0.805,0.805,0.805,0.804,0.804,0.804,0.805,0.805,0.804,0.803,0.803,0.803,0.802,0.801,0.801,0.801,0.799,0.799,0.799,0.799,0.8,0.8,0.8,0.801,0.802,0.804,0.806,0.808,0.812,0.814,0.815,0.816,0.817
1.027,1.027,1.025,1.025,1.023,1.023,1.023,1.025,1.025,1.023,1.023,1.023,1.023,1.023,1.023,1.023,1.022,1.02,1.02,1.02,1.02,1.02,1.02,1.02,1.02,1.02,1.02,1.022,1.022,1.023,1.025,1.025,1.025,1.025,1.025,1.025,1.025,1.025,1.025,1.025,1.025,1.025,1.025,1.025,1.025,1.027,1.029,1.03,1.034,1.035,1.039,1.046,1.055,1.06,1.068,1.077,1.086,1.098,1.104,1.106,1.106,1.108,1.108,0,0,0,0,0,0,0,0,0,0,0,0,0,0,0,0,0,0,0,0,0,0,0,0,0,0,0,0,0,0,0,1.06,1.075,1.09,1.104,1.12,1.13,1.138,1.142,0,0,0,1.114,1.094,1.079,1.068,1.06,1.053,1.05,1.042,1.039,1.037,1.035,1.035,1.037,1.039,1.041,1.037,1.039,1.041,1.041,1.044,1.046,1.048,1.051,1.057,1.066,1.075,1.081,1.083,1.086,1.09,1.09,1.092,1.088,1.084,1.081,1.079,1.079,1.077,1.073,1.069,1.066,1.064,1.066,1.064,1.064,1.062,1.06,1.06,1.06,1.058,1.058,1.058,1.055,1.051,1.048,1.046,1.046,1.044,1.042,1.041,1.039,1.039,1.039,1.041,1.039,1.039,1.039,1.041,1.041,1.042,1.044,1.046,1.046,1.048,1.051,1.053,1.055,1.058,1.062,1.066,1.068,1.071,1.071,1.073,1.073,1.073,1.071,1.069,1.068,1.066,1.06,1.053,1.051,1.044,1.042,1.039,1.035,1.034,1.03,1.029,1.029,1.027,1.027,1.027,1.025,1.023,1.023,1.023,1.023,1.023,1.023,1.023,1.025,1.025,1.025,1.025,1.027,1.027,1.027,1.027,1.027,1.027,1.027,1.029,1.025,1.023,1.023,1.023,1.022,1.022,1.022,1.022,1.022,1.023,1.025,1.025,1.025,1.025,1.025,1.025,1.025,1.025,1.023,1.022,1.022,1.022,1.022,1.02,1.018,1.018,1.017,1.015,1.013,1.012,1.01,1.007,1.002,0.994,0.984,0.972,0,0.944,0.931,0.92,0.911,0.904,0.897,0.894,0.891,0.89,0.89,0.89,0.891,0.891,0.892,0.896,0.899,0.904,0.908,0.912,0.915,0.919,0.923,0.926,0.928,0.931,0.935,0.938,0.942,0.948,0.956,0.963,0.971,0.977,0.981,0.986,0.989,0.994,0.996,0.997,1,1.002,1.005,1.007,1.008,1.012,1.013,1.015,1.015,1.017,1.015,1.015,1.015,1.015,1.015,1.013,1.013,1.013,1.013,1.013,1.013,1.013,1.015,1.015,1.017,1.017,1.017,1.017,1.017,1.017,1.018,1.018,1.02,1.02,1.022,1.022,1.023,1.025,1.025,1.025,1.025,1.025,1.025,1.025,1.025,1.025,1.027,1.025,1.025,1.025,1.023,1.023,1.022,1.02,1.018,1.018,1.015,1.013,1.013,1.013,1.013,1.013,1.012,1.012,1.012,1.012,1.013,1.012,1.012,1.012,1.01,1.012,1.012,1.01,1.01,1.01,1.01,1.012,1.012,1.012,1.013,1.013,1.013,1.012,1.012,1.012,1.012,1.012,1.012,1.012,1.013,1.013,1.015,1.015,1.015,1.017,1.017,1.017,1.018,1.017,1.018,1.018,1.018,1.02,1.02,1.022,0,0,0,0,0,0,0.76,0.757,0.753,0.751,0.748,0.745,0.742,0.74,0.737,0.735,0.732,0.73,0.728,0.727,0.725,0.724,0.723,0.723,0.723,0.723,0.723,0.724,0.726,0.727,0.728,0.733,0.738,0.745,0.753,0,0.77,0.78,0.789,0.795,0.799,0.802,0.803,0.805,0.806,0.806,0.806,0.806,0.805,0.804,0.803,0.802,0.801,0.799,0.798,0.797,0.796,0.796,0.796,0.796,0.797,0.799,0.801,0.802,0.805,0.806,0.809,0.812,0.815,0.816,0.817,0.818,0.819,0.818,0.816,0.814,0.813,0.809,0.806,0.803,0.801,0.8,0.799,0.799,0.799,0.8,0.801,0.801,0.802,0.803,0.803,0.803,0.803,0.803,0.803,0.803,0.803,0.803,0.803,0.803,0.803,0.803,0.802,0.801,0.801,0.801,0.802,0.801,0.801,0.801,0.801,0.801,0.801,0.801,0.801,0.801,0.801,0.8,0.8,0.8,0.799,0.799,0.798,0.797,0.797,0.796,0.795,0.795,0.796,0.796,0.796,0.795,0.795,0.795,0.795,0.795,0.796,0.796,0.796,0.797,0.798,0.8,0.803,0.804,0.807,0.807,0.808,0.808
1.02,1.02,1.02,1.02,1.018,1.018,1.018,1.018,1.018,1.018,1.018,1.017,1.017,1.017,1.017,1.017,1.015,1.015,1.015,1.013,1.013,1.013,1.013,1.015,1.015,1.015,1.017,1.017,1.017,1.018,1.02,1.02,1.02,1.02,1.02,1.02,1.02,1.018,1.018,1.018,1.018,1.02,1.02,1.02,1.022,1.022,1.025,1.027,1.03,1.032,1.035,1.042,1.05,1.055,1.064,1.071,1.084,1.096,1.102,1.106,1.106,1.106,0,0,0,0,0,0,0,0,0,0,0,0,0,0,0,0,0,0,0,0,0,0,0,0,0,0,0,0,0,0,0,0,0,0,1.086,1.102,1.118,0,1.134,0,0,0,1.112,1.096,1.077,1.058,1.053,1.05,1.046,1.042,1.037,1.037,1.037,1.035,1.035,1.035,1.037,1.039,0,1.037,1.037,1.039,1.039,1.041,1.044,1.048,1.051,1.062,1.071,1.077,1.081,1.084,1.088,1.092,1.092,1.09,1.084,1.083,1.079,1.079,1.077,1.073,1.069,1.066,1.062,1.062,1.062,1.062,1.06,1.058,1.057,1.057,1.055,1.055,1.053,1.05,1.046,1.044,1.042,1.041,1.041,1.037,1.035,1.035,1.034,1.034,1.034,1.034,1.034,1.035,1.035,1.037,1.039,1.041,1.042,1.042,1.046,1.048,1.05,1.051,1.053,1.058,1.06,1.062,1.064,1.066,1.066,1.066,1.064,1.064,1.062,1.058,1.057,1.053,1.048,1.044,1.041,1.037,1.034,1.034,1.03,1.03,1.029,1.027,1.027,1.027,1.025,1.023,1.022,1.023,1.022,1.023,1.023,1.023,1.023,1.023,1.023,1.023,1.023,1.022,1.023,1.023,1.022,1.023,1.022,1.022,1.022,1.02,1.018,1.017,1.018,1.017,1.015,1.015,1.015,1.017,1.017,1.018,1.018,1.018,1.018,1.018,1.018,1.018,1.018,1.017,1.017,1.015,1.013,1.015,1.013,1.012,1.012,1.01,1.01,1.008,1.007,1.005,1.004,0.999,0.991,0.983,0.972,0,0.944,0.931,0,0.909,0.904,0.899,0.894,0.891,0.89,0.89,0.89,0.89,0.891,0.892,0.895,0.899,0.904,0.909,0.913,0.917,0.921,0.926,0.928,0.931,0.934,0.937,0.938,0.941,0.947,0.953,0.959,0.966,0.972,0.977,0.981,0.984,0.989,0.991,0.992,0.996,0.997,0.999,1,1.004,1.005,1.007,1.007,1.008,1.008,1.008,1.008,1.008,1.008,1.008,1.008,1.008,1.008,1.007,1.008,1.008,1.008,1.01,1.01,1.01,1.01,1.01,1.012,1.012,1.012,1.013,1.013,1.013,1.013,1.015,1.015,1.017,1.017,1.017,1.017,1.017,1.018,1.018,1.018,1.018,1.018,1.018,1.02,1.018,1.018,1.017,1.017,1.015,1.013,1.013,1.01,1.008,1.007,1.007,1.007,1.007,1.007,1.007,1.007,1.007,1.007,1.008,1.007,1.007,1.005,1.005,1.007,1.007,1.007,1.007,1.007,1.007,1.007,1.007,1.008,1.008,1.008,1.008,1.008,1.007,1.005,1.005,1.005,1.005,1.005,1.005,1.007,1.008,1.008,1.008,1.01,1.01,1.01,1.012,1.012,1.012,1.013,1.013,1.013,1.015,1.015,0,0,0,0,0,0,0,0.757,0.753,0.751,0.748,0.745,0.742,0.739,0.736,0.734,0.732,0.73,0.728,0.728,0.727,0.725,0.724,0.724,0.723,0.723,0.724,0.725,0.726,0.727,0.728,0.732,0.736,0.742,0.749,0,0.764,0.773,0.781,0.788,0.792,0.796,0.798,0.8,0.801,0.802,0.802,0.801,0.801,0.799,0.798,0.797,0.795,0.794,0.793,0.792,0.791,0.791,0.791,0.792,0.793,0.794,0.796,0.798,0.801,0.803,0.806,0.808,0.81,0.813,0.814,0.815,0.815,0.814,0.812,0.809,0.807,0.804,0.801,0.798,0.795,0.794,0.794,0.794,0.794,0.794,0.796,0.797,0.798,0.798,0.799,0.8,0.799,0.799,0.8,0.8,0.799,0.799,0.799,0.799,0.799,0.798,0.798,0.798,0.797,0.797,0.797,0.797,0.797,0.796,0.797,0.797,0.796,0.796,0.796,0.796,0.797,0.797,0.796,0.795,0.795,0.794,0.793,0.792,0.792,0.791,0.791,0.791,0.791,0.791,0.792,0.791,0.791,0.791,0.791,0.791,0.791,0.791,0.792,0.792,0.793,0.794,0.796,0.798,0.799,0.8,0.8,0.8
1.013,1.013,1.013,1.013,1.012,1.012,1.012,1.012,1.012,1.012,1.012,1.01,1.01,1.01,1.01,1.01,1.01,1.008,1.01,1.01,1.01,1.01,1.01,1.01,1.01,1.01,1.012,1.012,1.012,1.013,1.015,1.015,1.013,1.013,1.013,1.013,1.013,1.012,1.012,1.013,1.013,1.013,1.015,1.015,1.018,1.018,1.022,1.023,1.027,1.029,1.032,1.039,1.044,1.053,1.06,1.069,1.083,1.094,1.1,1.104,0,0,0,0,0,0,0,0,0,0,0,0,0,0,0,0,0,0,0,0,0,0,0,0,0,0,0,0,0,0,0,0,0,0,0,0,1.088,1.102,0,1.126,1.132,1.128,1.12,0,0,0,1.053,1.037,0,0,0,0,0,0,0,1.034,1.034,1.034,0,0,0,0,0,1.035,1.035,1.037,1.039,0,0,0,0,0,1.077,1.081,1.088,1.092,1.092,0,0,1.084,1.084,1.083,1.081,1.075,1.073,1.069,1.066,1.064,1.064,1.06,1.058,1.057,1.055,1.053,1.051,1.048,1.048,1.042,1.041,1.039,1.037,1.035,1.034,1.032,1.029,1.027,1.029,1.027,1.027,1.027,1.029,1.029,1.032,1.034,1.035,1.037,1.039,1.042,1.042,1.046,1.048,1.05,1.051,1.055,1.057,1.058,1.062,1.06,1.058,1.058,1.057,1.055,1.051,1.05,1.048,1.044,1.041,1.039,1.035,1.035,1.035,1.035,1.034,1.032,1.03,1.03,1.029,1.029,1.027,1.025,1.023,1.023,1.023,1.025,1.025,1.025,1.023,1.023,1.022,1.022,1.022,1.02,1.02,1.02,1.018,1.018,1.018,1.018,1.018,1.017,1.015,1.015,1.013,1.012,1.01,1.01,1.01,1.01,1.012,1.012,1.012,1.012,1.012,1.012,1.013,1.012,1.012,1.01,1.01,1.008,1.008,1.008,1.007,1.007,1.005,1.005,1.005,1.005,1.002,1.004,0.999,0.996,0.988,0.98,0.969,0,0.941,0.928,0.919,0.908,0.904,0.897,0.894,0.891,0.89,0.888,0.888,0.89,0.891,0.891,0.895,0.899,0.905,0.909,0.915,0.919,0.924,0.928,0.933,0.935,0.937,0.938,0.94,0.941,0.945,0.951,0.956,0.962,0.968,0.972,0.978,0.981,0.986,0.986,0.988,0.991,0.991,0.992,0.994,0.996,0.997,0.997,0.999,0.999,1,0.999,1,1,1,1,1.002,1.002,1.004,1.002,1.004,1.004,1.004,1.004,1.004,1.005,1.005,1.005,1.005,1.005,1.007,1.007,1.007,1.007,1.008,1.008,1.008,1.008,1.01,1.01,1.008,1.01,1.01,1.012,1.012,1.012,1.012,1.012,1.012,1.012,1.012,1.008,1.008,1.008,1.007,1.007,1.004,1.002,1,1,1,1,1,1,1,0.999,1,1.002,1.002,1,1,1,1.002,1.002,1.002,1.002,1.002,1.002,1.002,1.002,1.002,1.004,1.002,1.002,1.002,1,0.999,0.999,0.999,0.999,0.999,0.999,0.999,1,1,1.004,1.004,1.005,1.005,1.005,1.007,1.007,1.007,1.008,1.008,1.008,1.01,0,0,0,0,0,0,0,0.755,0.753,0.75,0.746,0.744,0.742,0.739,0.736,0.734,0.731,0.73,0.728,0.728,0.727,0.726,0.725,0.724,0.724,0.724,0.725,0.725,0.726,0.727,0.727,0.73,0.734,0.739,0.744,0.751,0.758,0.765,0.773,0.78,0.785,0.79,0.792,0.794,0.796,0.796,0.797,0.796,0.796,0.794,0.793,0.792,0.79,0.789,0.787,0.787,0.786,0.786,0.786,0.787,0.788,0.79,0.792,0.793,0.796,0.799,0.801,0.803,0.806,0.808,0.809,0.81,0.81,0.808,0.805,0.804,0.801,0.798,0.794,0.791,0.789,0.788,0.787,0.788,0.789,0.789,0.791,0.793,0.794,0.795,0.796,0.796,0.796,0.797,0.797,0.796,0.796,0.795,0.795,0.795,0.795,0.795,0.794,0.793,0.792,0.793,0.793,0.793,0.792,0.792,0.792,0.792,0.793,0.792,0.793,0.793,0.793,0.793,0.793,0.792,0.791,0.79,0.79,0.789,0.788,0.788,0.787,0.787,0.787,0.787,0.787,0.787,0.787,0.786,0.786,0.786,0.786,0.787,0.787,0.788,0.788,0.789,0.79,0.791,0.792,0.792,0.792,0.792
1.008,1.008,1.007,1.005,1.005,1.005,1.005,1.005,1.005,1.005,1.005,1.005,1.004,1.004,1.005,1.004,1.004,1.004,1.004,1.005,1.005,1.005,1.005,1.005,1.005,1.007,1.007,1.007,1.007,1.008,1.008,1.008,1.008,1.008,1.007,1.007,1.007,1.005,1.005,1.005,1.007,1.008,1.01,1.012,1.013,1.015,1.017,1.02,1.022,1.025,1.029,1.034,1.042,1.046,1.055,1.066,0,0,0,0,0,0,0,0,0,0,0,0,0,0,0,0,0,0,0,0,0,0,0,0,0,0,0,0,0,0,0,0,0,0,0,0,0,0,0,0,0,0,0,0,0,0,0,0,0,0,1.042,0,0,0,0,0,0,0,0,0,0,0,0,0,0,0,0,1.023,1.023,1.027,0,0,0,0,0,0,0,0,0,0,0,1.088,1.086,1.084,1.083,1.081,1.081,1.075,1.073,1.068,1.064,1.062,1.06,1.057,1.053,1.051,1.05,1.048,1.044,1.041,1.039,1.037,1.035,1.034,1.032,1.03,1.029,1.025,1.023,1.02,1.02,1.02,1.02,1.018,1.02,1.02,1.022,1.025,1.029,1.032,1.032,1.035,1.039,1.042,1.044,1.048,1.05,1.053,1.055,1.058,1.058,1.057,1.055,1.055,1.051,1.048,1.042,1.041,1.037,1.037,1.034,1.032,1.032,1.034,1.034,1.035,1.035,1.034,1.034,1.032,1.032,1.032,1.03,1.03,1.027,1.027,1.027,1.027,1.027,1.027,1.025,1.025,1.023,1.022,1.02,1.017,1.018,1.017,1.017,1.017,1.015,1.017,1.013,1.013,1.012,1.01,1.008,1.007,1.005,1.005,1.004,1.004,1.005,1.005,1.004,1.004,1.004,1.005,1.005,1.005,1.007,1.004,1.004,1.004,1.002,1.004,1.002,1.002,1,1,1,1,0.999,0.997,0.994,0.991,0.984,0.977,0.966,0.953,0.94,0.926,0.917,0.908,0.903,0.897,0.894,0.891,0.89,0.888,0.888,0.89,0.89,0.891,0.895,0.899,0.905,0.911,0.916,0.92,0.926,0.931,0.935,0.937,0.938,0.94,0.94,0.941,0.945,0.95,0.954,0.959,0.963,0.969,0.974,0.978,0.98,0.983,0.984,0.986,0.986,0.988,0.989,0.991,0.991,0.991,0.991,0.992,0.991,0.991,0.992,0.992,0.992,0.992,0.994,0.994,0.996,0.996,0.997,0.997,0.997,0.999,0.999,0.999,0.999,0.999,1,1,1,1.002,1,1.002,1,1.002,1.002,1.002,1.002,1.002,1.002,1.004,1.004,1.005,1.005,1.005,1.005,1.005,1.005,1.005,1.004,1.002,1.002,1,1,0.999,0.997,0.996,0.994,0.994,0.996,0.994,0.994,0.994,0.994,0.994,0.994,0.996,0.996,0.996,0.996,0.996,0.996,0.996,0.996,0.996,0.997,0.997,0.997,0.997,0.997,0.997,0.997,0.997,0.997,0.994,0.994,0.992,0.992,0.992,0.992,0.991,0.992,0.994,0.996,0.996,0.999,0.999,1,1,1.002,1.002,1.004,1.004,1.004,0,0,0,0,0,0,0.761,0.759,0.757,0.755,0.752,0.749,0.746,0.743,0.741,0.738,0.735,0.733,0.731,0.73,0.728,0.728,0.728,0.727,0.726,0.725,0.725,0.725,0.726,0.726,0.727,0.727,0.728,0.73,0.733,0.736,0.741,0.746,0.752,0.759,0.766,0.772,0.778,0.782,0.785,0.788,0.79,0.79,0.791,0.79,0.789,0.788,0.786,0.785,0.783,0.782,0.781,0.78,0.78,0.78,0.781,0.781,0.783,0.784,0.786,0.788,0.791,0.793,0.796,0.798,0.8,0.802,0.803,0.804,0.803,0.801,0.799,0.797,0.794,0.791,0.787,0.784,0.782,0.782,0.782,0.782,0.783,0.785,0.787,0.789,0.791,0.793,0.794,0.794,0.794,0.794,0.794,0.794,0.793,0.791,0.79,0.789,0.788,0.788,0.787,0.786,0.786,0.786,0.786,0.787,0.786,0.786,0.786,0.787,0.787,0.787,0.788,0.788,0.788,0.788,0.787,0.787,0.787,0.786,0.785,0.785,0.784,0.784,0.784,0.783,0.783,0.783,0.783,0.783,0.783,0.782,0.782,0.782,0.782,0.782,0.783,0.784,0.784,0.784,0.784,0.785,0.785,0.786,0.786,0.786
1.002,1.002,1,0.999,0.999,0.999,0.999,0.999,0.999,0.999,0.997,0.997,0.997,0.997,0.997,0.997,0.997,0.999,0.999,0.999,1,1,1,1,1,1.002,1.002,1.002,1.004,1.004,1.005,1.005,1.004,1.004,1.002,1.002,1.002,1,1,1,1.002,1.004,1.005,1.007,1.008,1.012,1.013,1.017,1.018,1.023,1.025,1.032,1.037,0,0,0,0,0,0,0,0,0,0,0,0,0,0,0,0,0,0,0,0,0,0,0,0,0,0,0,0,0,0,0,0,0,0,0,0,0,0,0,0,0,0,0,0,0,0,0,0,0,0,0,0,0,0,1.022,0,0,0,0,0,0,0,0,0,0,0,0,0,0,0,0,0,0,0,0,0,0,0,0,0,0,0,0,0,0,1.084,1.083,1.083,1.081,1.079,1.075,1.069,1.066,1.06,1.058,1.055,1.051,1.048,1.044,1.042,1.042,1.037,1.037,1.035,1.032,1.03,1.029,1.029,1.025,1.022,1.02,1.017,1.015,1.013,1.013,1.012,1.01,1.012,1.012,1.013,1.017,1.02,1.023,1.027,1.03,1.035,1.039,1.042,1.046,1.048,1.051,1.055,1.057,1.057,1.053,1.055,1.051,1.048,1.042,1.039,1.035,1.034,1.032,1.029,1.027,1.029,1.032,1.034,1.035,1.037,1.037,1.037,1.037,1.041,1.039,1.037,1.037,1.034,1.032,1.034,1.032,1.032,1.03,1.029,1.027,1.023,1.022,1.022,1.017,1.017,1.015,1.013,1.015,1.013,1.013,1.012,1.01,1.008,1.008,1.005,1.002,1.002,1,0.999,1,1,1,1,1,1,1,1.002,1.002,1.002,1,0.999,0.999,0.999,0.999,0.997,0.997,0.997,0.996,0.996,0.996,0.994,0.992,0.988,0.986,0.98,0.972,0.962,0.95,0.937,0,0.916,0.908,0.903,0.897,0.894,0.891,0.888,0.888,0.888,0.89,0.89,0.891,0.895,0.899,0.905,0.912,0.917,0.921,0.927,0.933,0.937,0.94,0.94,0.941,0.941,0.944,0.945,0.95,0.953,0.956,0.96,0.964,0.969,0.974,0.975,0.978,0.98,0.98,0.981,0.981,0.983,0.983,0.983,0.983,0.983,0.983,0.983,0.983,0.983,0.983,0.983,0.984,0.984,0.986,0.988,0.988,0.989,0.991,0.991,0.991,0.992,0.992,0.992,0.994,0.994,0.994,0.996,0.996,0.996,0.996,0.996,0.996,0.996,0.996,0.997,0.997,0.997,0.999,1,1,1,1,1,1,1,0.999,0.997,0.996,0.994,0.994,0.994,0.992,0.991,0.991,0.988,0.988,0.989,0.988,0.988,0.988,0.988,0.988,0.988,0.989,0.988,0.989,0.989,0.989,0.989,0.989,0.989,0.989,0.991,0.992,0.992,0.992,0.992,0.992,0.992,0.992,0.991,0.989,0.988,0.988,0.988,0.986,0.986,0.986,0.986,0.986,0.988,0.989,0.991,0.992,0.992,0.994,0.996,0.996,0.997,0,0,0,0,0,0,0.759,0.759,0.758,0.757,0.755,0.753,0.751,0.748,0.745,0.742,0.74,0.737,0.735,0.733,0.731,0.73,0.728,0.728,0.728,0.727,0.726,0.726,0.726,0.726,0.726,0.727,0.727,0.728,0.728,0.729,0.731,0.735,0.738,0.742,0.747,0.753,0.759,0.765,0.77,0.775,0.778,0.781,0.783,0.784,0.784,0.784,0.783,0.782,0.78,0.778,0.777,0.776,0.775,0.775,0.775,0.775,0.776,0.776,0.778,0.779,0.781,0.783,0.785,0.788,0.79,0.792,0.794,0.797,0.798,0.798,0.797,0.795,0.792,0.79,0.787,0.784,0.78,0.778,0.775,0.775,0.775,0.777,0.779,0.78,0.783,0.785,0.787,0.789,0.791,0.791,0.791,0.791,0.791,0.789,0.788,0.786,0.784,0.782,0.781,0.78,0.78,0.779,0.779,0.779,0.78,0.78,0.78,0.781,0.781,0.781,0.782,0.782,0.783,0.783,0.784,0.783,0.783,0.783,0.782,0.781,0.781,0.78,0.78,0.78,0.779,0.779,0.779,0.779,0.778,0.778,0.779,0.778,0.778,0.778,0.778,0.778,0.778,0.78,0.78,0.78,0.78,0.781,0.781,0.781,0.782,0.781
0.996,0.996,0.994,0.994,0.992,0.992,0.992,0.992,0.992,0.991,0.991,0.991,0.991,0.991,0.991,0.992,0.992,0.994,0.994,0.994,0.996,0.996,0.996,0.997,0.997,0.997,0.997,0.997,0.999,0.999,0.999,0.999,0.999,0.997,0.997,0.999,0.997,0.997,0.996,0.996,0.997,1,1.002,1.004,1.005,1.008,1.012,1.013,1.017,1.02,1.023,1.027,1.032,0,0,0,0,0,0,0,0,0,0,0,0,0,0,0,0,0,0,0,0,0,0,0,0,0,0,0,0,0,0,0,0,0,0,0,0,0,0,0,0,0,0,0,0,0,0,0,0,0,0,0,0,0,0,0,0,0,0,0,0,0,0,0,0,1.004,1.007,0,0,0,0,1.007,1.01,0,0,0,0,0,0,0,0,0,0,0,0,0,1.081,1.081,1.081,1.079,1.079,1.073,0,0,1.058,1.053,1.05,1.046,1.042,1.039,1.037,1.037,1.034,1.032,1.03,1.029,1.027,1.025,1.023,1.018,1.017,1.013,1.012,1.008,1.007,1.005,1.004,1.002,1.004,1.004,1.005,1.008,1.013,1.015,1.02,1.025,1.032,1.037,1.041,1.046,1.05,1.053,1.055,1.057,1.057,1.053,1.051,1.048,1.044,1.037,1.034,1.032,1.029,1.027,1.025,1.025,1.027,1.032,1.035,1.039,1.041,1.041,1.042,1.044,1.048,1.048,1.044,1.044,1.042,1.042,1.041,1.041,1.037,1.035,1.032,1.029,1.025,1.023,1.022,1.017,1.015,1.013,1.015,1.013,1.012,1.01,1.008,1.007,1.005,1.004,1.002,1,0.997,0.997,0.997,0.996,0.997,0.997,0.997,0.997,0.997,0.997,0.997,0.997,0.997,0.996,0.994,0.992,0.994,0.992,0.992,0.992,0.991,0.991,0.991,0.989,0.988,0.986,0.983,0.978,0.974,0.968,0.957,0.947,0.935,0,0.916,0.909,0.903,0.897,0.894,0.891,0.89,0.888,0.888,0.89,0.89,0.891,0.895,0.9,0.905,0.912,0.917,0.923,0.928,0.934,0.938,0.94,0.941,0.941,0.942,0.944,0.945,0.948,0.951,0.954,0.957,0.962,0.966,0.969,0.971,0.972,0.974,0.974,0.974,0.974,0.975,0.975,0.975,0.975,0.975,0.975,0.975,0.974,0.974,0.974,0.975,0.975,0.977,0.978,0.98,0.98,0.981,0.983,0.984,0.984,0.986,0.986,0.988,0.988,0.989,0.989,0.989,0.991,0.991,0.989,0.991,0.991,0.991,0.991,0.991,0.991,0.991,0.992,0.994,0.994,0.994,0.994,0.994,0.994,0.994,0.992,0.991,0.989,0.989,0.988,0.988,0.986,0.984,0.984,0.983,0.981,0.983,0.981,0.981,0.983,0.983,0.983,0.983,0.983,0.983,0.983,0.983,0.983,0.983,0.983,0.983,0.984,0.984,0.984,0.984,0.986,0.984,0.986,0.986,0.986,0.984,0.983,0.981,0.981,0.98,0.98,0.98,0.98,0.98,0.98,0.98,0.981,0.984,0.984,0.988,0.989,0.991,0.992,0.994,0,0,0,0,0,0,0,0.756,0.755,0.754,0.752,0.751,0.748,0.745,0.743,0.741,0.738,0.736,0.735,0.733,0.731,0.729,0.728,0.728,0.728,0.727,0.727,0.726,0.726,0.727,0.727,0.727,0.728,0.728,0.728,0.729,0.731,0.734,0.736,0.74,0.743,0.749,0.753,0.759,0.763,0.767,0.771,0.774,0.776,0.777,0.777,0.777,0.776,0.776,0.774,0.773,0.771,0.77,0.77,0.769,0.769,0.77,0.771,0.772,0.773,0.774,0.776,0.778,0.78,0.782,0.785,0.787,0.788,0.791,0.792,0.792,0.791,0.788,0.785,0.783,0.781,0.778,0.775,0.772,0.771,0.77,0.771,0.772,0.774,0.776,0.778,0.78,0.782,0.785,0.787,0.788,0.788,0.787,0.786,0.784,0.783,0.78,0.777,0.775,0.774,0.773,0.773,0.773,0.773,0.773,0.774,0.775,0.775,0.776,0.776,0.777,0.777,0.778,0.779,0.78,0.78,0.78,0.779,0.779,0.778,0.778,0.777,0.776,0.776,0.775,0.775,0.774,0.774,0.774,0.774,0.774,0.774,0.774,0.773,0.774,0.775,0.775,0.775,0.776,0.777,0.777,0.777,0.778,0.778,0.779,0.779,0.778
0.991,0.989,0.989,0.988,0.988,0.986,0.986,0.986,0.986,0.984,0.984,0.984,0.984,0.984,0.986,0.986,0.988,0.989,0.989,0.991,0.992,0.994,0.994,0.994,0.994,0.994,0.994,0.994,0.994,0.994,0.996,0.996,0.996,0.994,0.994,0.994,0.994,0.994,0.992,0.992,0.996,0.996,0.999,1.002,1.004,1.007,1.01,1.013,1.015,1.018,1.02,0,0,0,0,0,0,0,0,0,0,0,0,0,0,0,0,0,0,0,0,0,0,0,0,0,0,0,0,0,0,0,0,0,0,0,0,0,0,0,0,0,0,0,0,0,0,0,0,0,0,0,0,0,0,0,0,1.004,0,0.999,0.999,0,0,0,0,0,0.996,0.996,0.997,0,0,0,1,1,1.002,1.004,0,0,0,0,0,0,0,0,0,0,0,1.071,1.073,1.075,1.075,1.075,1.073,1.069,1.064,0,0,0,1.044,1.041,1.035,1.032,1.03,1.03,1.027,1.027,1.025,1.023,1.022,1.018,1.017,1.013,1.01,1.007,1.004,1,0.999,0.997,0.996,0.994,0.996,0.996,0.996,0.997,1.004,1.007,1.013,1.018,1.027,1.034,1.041,1.046,1.05,1.051,1.055,1.055,1.055,1.051,1.05,1.046,1.041,1.034,1.03,1.029,1.025,1.023,1.023,1.023,1.027,1.032,1.037,1.042,1.044,1.048,1.05,1.051,1.055,1.055,1.053,1.051,1.05,1.048,1.048,1.044,1.042,1.041,1.035,1.032,1.027,1.025,1.022,1.017,1.015,1.013,1.013,1.012,1.01,1.008,1.007,1.005,1.004,1.002,0.999,0.997,0.996,0.994,0.994,0.994,0.994,0.994,0.994,0.994,0.994,0.994,0.994,0.992,0.994,0.991,0.989,0.988,0.988,0.986,0.986,0.986,0.984,0.984,0.984,0.983,0.981,0.978,0.975,0.972,0.968,0.962,0.953,0.942,0.933,0.924,0.917,0.911,0.903,0.899,0.895,0.892,0.89,0.89,0.89,0.89,0.891,0.892,0.896,0.9,0.907,0.912,0.917,0.923,0.928,0.934,0.938,0.94,0.941,0.941,0.942,0.944,0.945,0.948,0.951,0.953,0.956,0.959,0.962,0.964,0.964,0.968,0.968,0.968,0.968,0.968,0.968,0.968,0.968,0.968,0.968,0.968,0.966,0.966,0.966,0.966,0.966,0.968,0.968,0.969,0.972,0.974,0.975,0.977,0.978,0.978,0.98,0.981,0.981,0.983,0.983,0.984,0.984,0.984,0.984,0.984,0.984,0.984,0.984,0.984,0.984,0.984,0.984,0.986,0.988,0.988,0.988,0.988,0.986,0.988,0.986,0.986,0.984,0.983,0.981,0.981,0.981,0.98,0.98,0.978,0.977,0.977,0.977,0.977,0.977,0.978,0.978,0.978,0.978,0.978,0.978,0.978,0.978,0.978,0.978,0.978,0.978,0.978,0.978,0.98,0.98,0.98,0.978,0.978,0.978,0.978,0.978,0.977,0.975,0.975,0.974,0.974,0.972,0.972,0.972,0.972,0.974,0.975,0.977,0.98,0.981,0.983,0.986,0.988,0,0,0,0,0,0,0,0.754,0.753,0.752,0.751,0.75,0.749,0.746,0.743,0.742,0.739,0.736,0.735,0.734,0.732,0.731,0.729,0.728,0.728,0.728,0.728,0.727,0.727,0.727,0.727,0.727,0.728,0.728,0.728,0.728,0.729,0.731,0.732,0.735,0.737,0.74,0.744,0.748,0.752,0.757,0.761,0.764,0.767,0.77,0.771,0.771,0.771,0.771,0.77,0.768,0.767,0.766,0.765,0.765,0.765,0.765,0.765,0.766,0.767,0.768,0.77,0.771,0.773,0.776,0.778,0.78,0.781,0.783,0.785,0.786,0.786,0.784,0.782,0.779,0.776,0.774,0.772,0.769,0.767,0.766,0.766,0.766,0.768,0.769,0.771,0.773,0.776,0.778,0.78,0.782,0.783,0.783,0.782,0.781,0.779,0.777,0.774,0.771,0.769,0.767,0.766,0.765,0.766,0.766,0.767,0.768,0.769,0.77,0.771,0.772,0.772,0.773,0.774,0.776,0.776,0.776,0.776,0.775,0.775,0.775,0.774,0.773,0.772,0.772,0.771,0.77,0.77,0.769,0.769,0.769,0.769,0.769,0.769,0.769,0.769,0.77,0.771,0.772,0.773,0.773,0.773,0.774,0.775,0.775,0.775,0.775,0.775
0.984,0.983,0.983,0.981,0.981,0.981,0.981,0.981,0.98,0.978,0.98,0.98,0.98,0.98,0.98,0.981,0.983,0.984,0.986,0.988,0.989,0.991,0.991,0.991,0.992,0.991,0.991,0.991,0.992,0.992,0.992,0.992,0.991,0.989,0.989,0.991,0.989,0.989,0.989,0.989,0.992,0.992,0.996,1,1.002,1.005,1.008,1.01,1.013,1.017,1.018,0,0,0,0,0,0,0,0,0,0,0,0,0,0,0,0,0,0,0,0,0,0,0,0,0,0,0,0,0,0,0,0,0,0,0,0,0,0,0,0,0,0,0,0,0,0,0,0,0,0,0,0,0,0,0,0,0,0.999,0.996,0.994,0.994,0.991,0.991,0,0.992,0.992,0.992,0.994,0.997,0.997,0.997,0.997,0.996,0.997,0.999,1.002,0,0,0,0,0,1.032,1.037,1.044,1.05,1.057,1.06,1.064,1.069,1.069,1.069,1.068,1.064,1.058,1.053,1.046,1.041,1.035,1.03,1.025,1.023,1.023,1.023,1.02,1.02,1.018,1.018,1.017,1.015,1.013,1.008,1.007,1.002,0.999,0.994,0.994,0.991,0.991,0.986,0.988,0.988,0.988,0.991,0.996,0.999,1.005,1.012,1.02,1.027,1.034,1.042,1.048,1.051,1.053,1.053,1.053,1.05,1.048,1.044,1.037,1.03,1.027,1.025,1.023,1.023,1.023,1.022,1.025,1.034,1.041,1.044,1.048,1.051,1.053,1.057,1.06,1.06,1.06,1.058,1.055,1.055,1.053,1.051,1.046,1.042,1.037,1.034,1.027,1.023,1.02,1.013,1.012,1.012,1.01,1.008,1.008,1.007,1.005,1.004,1.002,1,0.997,0.996,0.994,0.992,0.992,0.991,0.991,0.989,0.991,0.989,0.989,0.989,0.989,0.988,0.986,0.983,0.981,0.98,0.978,0.978,0.978,0.978,0.977,0.977,0.977,0.975,0.974,0.971,0.969,0.966,0.962,0.957,0.948,0.94,0.931,0.923,0.916,0.911,0.904,0.899,0.896,0.894,0.891,0.89,0.89,0.891,0.891,0.892,0.896,0.901,0.907,0.912,0.917,0.923,0.928,0.934,0.938,0.94,0.941,0.942,0.942,0.944,0.945,0.947,0.948,0.951,0.953,0.956,0.957,0.96,0.96,0.962,0.962,0.962,0.962,0.962,0.962,0.962,0.962,0.962,0.962,0.96,0.96,0.959,0.959,0.959,0.959,0.959,0.96,0.962,0.963,0.966,0.968,0.969,0.971,0.972,0.974,0.975,0.975,0.975,0.977,0.978,0.978,0.978,0.978,0.978,0.977,0.977,0.977,0.977,0.978,0.977,0.978,0.98,0.98,0.98,0.98,0.98,0.98,0.98,0.98,0.978,0.977,0.977,0.975,0.975,0.975,0.974,0.974,0.972,0.972,0.972,0.972,0.972,0.972,0.972,0.972,0.972,0.972,0.972,0.972,0.972,0.972,0.972,0.972,0.972,0.972,0.972,0.974,0.974,0.974,0.974,0.974,0.972,0.972,0.972,0.972,0.971,0.971,0.968,0.968,0.968,0.966,0.964,0.964,0.964,0.966,0.968,0.971,0.972,0.974,0.977,0,0,0,0,0,0,0,0.752,0.753,0.752,0.751,0.751,0.749,0.748,0.746,0.744,0.742,0.74,0.737,0.735,0.734,0.733,0.732,0.73,0.729,0.728,0.728,0.728,0.728,0.727,0.727,0.727,0.727,0.728,0.728,0.728,0.728,0.728,0.729,0.73,0.732,0.734,0.735,0.737,0.741,0.745,0.749,0.751,0.755,0.759,0.762,0.764,0.765,0.766,0.766,0.765,0.764,0.764,0.764,0.762,0.762,0.761,0.762,0.762,0.762,0.763,0.764,0.765,0.766,0.767,0.77,0.772,0.774,0.777,0.778,0.779,0.78,0.781,0.78,0.778,0.775,0.772,0.77,0.768,0.766,0.764,0.763,0.763,0.763,0.764,0.764,0.766,0.768,0.769,0.772,0.774,0.776,0.778,0.778,0.778,0.777,0.776,0.773,0.771,0.769,0.766,0.764,0.762,0.761,0.76,0.761,0.761,0.762,0.764,0.764,0.765,0.767,0.768,0.769,0.77,0.771,0.772,0.773,0.774,0.773,0.773,0.773,0.772,0.771,0.77,0.768,0.767,0.766,0.765,0.765,0.764,0.764,0.764,0.764,0.764,0.764,0.764,0.765,0.766,0.767,0.768,0.769,0.77,0.77,0.77,0.771,0.772,0.772,0.772,0.771
0.978,0.978,0.977,0.977,0.975,0.975,0.975,0.975,0.974,0.974,0.974,0.974,0.974,0.975,0.977,0.977,0.98,0.981,0.983,0.984,0.986,0.988,0.988,0.989,0.989,0.989,0.989,0.989,0.989,0.989,0.991,0.991,0.989,0.988,0.988,0.988,0.988,0.986,0.986,0.986,0.988,0.991,0.994,0.997,0.999,1.004,1.005,1.01,1.012,1.013,1.015,0,0,0,0,0,0,0,0,0,0,0,0,0,0,0,0,0,0,0,0,0,0,0,0,0,0,0,0,0,0,0,0,0,0,0,0,0,0,0,0,0,0,0,0,0,0,0,0,0,0,0,0,0,0,1,1,1,0.997,0.994,0.992,0.991,0.989,0.988,0.989,0.989,0.989,0.989,0.992,0.994,0.996,0.994,0.992,0.992,0.992,0.994,0.999,0,0,0,1.015,1.022,1.027,1.032,1.039,1.044,1.048,1.051,1.055,1.058,1.06,1.062,1.06,1.057,1.05,1.046,1.041,1.034,1.029,1.023,1.018,1.017,1.017,1.017,1.017,1.015,1.015,1.013,1.012,1.01,1.008,1.005,1.002,1,0.994,0.991,0.988,0.986,0.984,0.983,0.981,0.981,0.981,0.984,0.986,0.991,0.996,1,1.008,1.015,1.023,1.032,1.037,1.042,1.044,1.046,1.048,1.044,1.042,1.039,1.032,1.025,1.022,1.02,1.017,1.018,1.017,1.018,1.023,1.032,1.039,1.044,1.05,1.051,1.055,1.058,1.062,1.062,1.06,1.058,1.055,1.055,1.053,1.05,1.044,1.041,1.035,1.03,1.023,1.022,1.017,1.012,1.01,1.008,1.007,1.007,1.005,1.005,1.002,1.002,1,0.999,0.997,0.994,0.992,0.992,0.991,0.989,0.988,0.988,0.986,0.986,0.984,0.983,0.983,0.981,0.98,0.975,0.974,0.972,0.972,0.971,0.971,0.971,0.971,0.971,0.969,0.969,0.968,0.964,0.962,0.96,0.956,0.951,0.944,0.937,0.93,0.923,0.917,0.911,0.905,0.9,0.897,0.895,0.894,0.892,0.892,0.892,0.892,0.895,0.897,0.903,0.907,0.913,0.917,0.923,0.928,0.934,0.938,0.94,0.941,0.941,0.941,0.942,0.944,0.945,0.947,0.948,0.95,0.951,0.954,0.956,0.956,0.957,0.957,0.956,0.956,0.956,0.956,0.956,0.956,0.956,0.956,0.954,0.953,0.951,0.951,0.95,0.951,0.951,0.951,0.953,0.956,0.959,0.96,0.962,0.963,0.964,0.968,0.969,0.969,0.969,0.971,0.971,0.972,0.972,0.972,0.971,0.971,0.971,0.971,0.971,0.971,0.971,0.971,0.972,0.972,0.972,0.972,0.972,0.972,0.972,0.972,0.971,0.971,0.969,0.969,0.969,0.969,0.968,0.968,0.968,0.968,0.968,0.966,0.966,0.966,0.966,0.968,0.968,0.968,0.968,0.966,0.966,0.966,0.968,0.968,0.966,0.968,0.968,0.968,0.968,0.968,0.968,0.968,0.968,0.968,0.968,0.966,0.964,0.964,0.963,0.962,0.962,0.96,0.96,0.959,0.959,0.96,0.962,0.963,0.966,0.968,0.969,0.971,0,0,0,0,0,0,0.751,0.75,0.75,0.749,0.748,0.747,0.745,0.743,0.742,0.74,0.738,0.736,0.735,0.733,0.732,0.731,0.73,0.728,0.728,0.728,0.728,0.727,0.727,0.727,0.727,0.727,0.727,0.727,0.727,0.728,0.728,0.728,0.73,0.731,0.733,0.734,0.735,0.738,0.742,0.744,0.748,0.751,0.753,0.756,0.758,0.76,0.761,0.761,0.761,0.76,0.759,0.759,0.758,0.757,0.758,0.758,0.758,0.759,0.76,0.761,0.762,0.764,0.765,0.767,0.769,0.772,0.774,0.774,0.774,0.775,0.775,0.774,0.771,0.768,0.766,0.764,0.763,0.762,0.76,0.759,0.759,0.76,0.761,0.762,0.764,0.764,0.766,0.768,0.77,0.771,0.773,0.773,0.773,0.772,0.77,0.767,0.765,0.764,0.76,0.758,0.756,0.755,0.754,0.754,0.756,0.757,0.758,0.76,0.762,0.764,0.764,0.765,0.767,0.768,0.77,0.77,0.771,0.771,0.77,0.77,0.769,0.768,0.767,0.765,0.764,0.763,0.762,0.761,0.76,0.759,0.759,0.759,0.76,0.759,0.76,0.761,0.762,0.763,0.764,0.765,0.766,0.767,0.767,0.768,0.768,0.768,0.768,0.768
0.974,0.974,0.972,0.971,0.971,0.971,0.971,0.969,0.969,0.969,0.969,0.969,0.971,0.971,0.972,0.972,0.975,0.977,0.98,0.983,0.984,0.986,0.986,0.988,0.988,0.988,0.988,0.988,0.988,0.989,0.989,0.989,0.988,0.986,0.986,0.988,0.986,0.984,0.984,0.984,0.986,0.989,0.992,0.996,0.997,1.002,1.005,1.007,1.01,1.012,1.012,0,0,0,0,0,0,0,0,0,0,0,0,0,0,0,0,0,0,0,0,0,0,0,0,0,0,0,0,0,0,0,0,0,0,0,0,0,0,0,0,0,0,0,0,0,0,0,0,0,0,0,0,0,0,0,0,0,0,0.992,0.991,0.989,0.989,0.988,0.989,0.988,0.988,0.989,0.992,0.992,0.994,0.992,0.991,0.991,0.992,0.994,0.997,1,0,0,1.017,1.022,1.029,1.034,1.037,1.041,1.042,1.044,1.046,1.051,1.053,1.053,1.051,1.046,1.041,1.035,1.032,1.027,1.02,1.015,1.012,1.01,1.01,1.01,1.01,1.01,1.008,1.008,1.007,1.005,1.004,0.999,0.997,0.994,0.991,0.988,0.986,0.983,0.981,0.98,0.978,0.978,0.977,0.98,0.981,0.984,0.988,0.992,1,1.005,1.013,1.02,1.027,1.032,1.035,1.039,1.039,1.039,1.035,1.034,1.027,1.02,1.018,1.015,1.013,1.013,1.015,1.015,1.022,1.029,1.037,1.044,1.05,1.051,1.055,1.058,1.06,1.062,1.06,1.058,1.055,1.055,1.053,1.048,1.044,1.039,1.034,1.029,1.022,1.02,1.015,1.01,1.008,1.007,1.007,1.005,1.005,1.004,1.002,1,1,0.999,0.997,0.994,0.992,0.989,0.988,0.986,0.984,0.981,0.98,0.977,0.977,0.975,0.974,0.972,0.971,0.969,0.966,0.966,0.964,0.964,0.964,0.964,0.964,0.964,0.964,0.963,0.962,0.959,0.956,0.954,0.951,0.947,0.941,0.935,0.928,0.924,0.919,0.913,0.908,0.903,0.899,0.897,0.895,0.894,0.894,0.894,0.895,0.896,0.899,0.904,0.908,0.915,0.919,0.924,0.928,0.934,0.937,0.94,0.941,0.94,0.94,0.941,0.941,0.942,0.942,0.944,0.945,0.947,0.95,0.951,0.951,0.951,0.951,0.951,0.951,0.951,0.951,0.95,0.95,0.95,0.95,0.947,0.945,0.944,0.944,0.942,0.942,0.942,0.944,0.945,0.947,0.951,0.953,0.954,0.956,0.957,0.96,0.962,0.963,0.963,0.963,0.964,0.964,0.964,0.964,0.966,0.964,0.964,0.964,0.964,0.964,0.964,0.964,0.966,0.966,0.966,0.966,0.964,0.964,0.964,0.964,0.964,0.963,0.963,0.963,0.963,0.963,0.963,0.962,0.962,0.962,0.962,0.962,0.962,0.962,0.962,0.962,0.962,0.962,0.962,0.962,0.96,0.962,0.962,0.962,0.962,0.962,0.962,0.963,0.963,0.963,0.963,0.963,0.963,0.962,0.962,0.962,0.96,0.959,0.959,0.957,0.956,0.954,0.954,0.954,0.954,0.954,0.956,0.959,0.959,0,0,0,0,0,0,0,0,0,0.75,0.748,0.748,0.747,0.746,0.744,0.742,0.741,0.74,0.738,0.737,0.735,0.734,0.733,0.731,0.73,0.728,0.728,0.728,0.728,0.727,0.727,0.726,0.726,0.726,0.726,0.726,0.726,0.726,0.727,0.727,0.728,0.729,0.73,0.731,0.733,0.735,0.736,0.739,0.742,0.743,0.746,0.749,0.751,0.752,0.754,0.755,0.755,0.755,0.755,0.755,0.754,0.753,0.753,0.754,0.754,0.754,0.756,0.757,0.758,0.76,0.762,0.764,0.765,0.768,0.77,0.772,0.772,0.772,0.772,0.771,0.769,0.766,0.764,0.762,0.76,0.759,0.758,0.757,0.757,0.757,0.758,0.759,0.76,0.761,0.763,0.764,0.765,0.766,0.767,0.768,0.769,0.768,0.766,0.764,0.762,0.76,0.757,0.754,0.752,0.75,0.75,0.749,0.749,0.751,0.751,0.753,0.755,0.757,0.759,0.761,0.763,0.764,0.766,0.768,0.769,0.769,0.769,0.769,0.768,0.767,0.766,0.764,0.762,0.761,0.759,0.757,0.756,0.755,0.754,0.754,0.754,0.754,0.754,0.756,0.757,0.758,0.759,0.76,0.762,0.763,0.764,0.764,0.764,0.764,0.765,0.764,0.764
0.969,0.968,0.966,0.966,0.966,0.964,0.964,0.964,0.963,0.963,0.963,0.963,0.964,0.966,0.968,0.971,0.972,0.974,0.977,0.978,0.983,0.984,0.986,0.986,0.986,0.988,0.988,0.988,0.989,0.989,0.989,0.989,0.989,0.988,0.988,0.986,0.986,0.986,0.984,0.984,0.984,0.986,0.992,0.997,0.999,1.004,1.005,1.007,1.008,1.008,0,0,0,0,0,0,0,0,0,0,0,0,0,0,0,0,0,0,0,0,0,0,0,0,0,0,0,0,0,0,0,0,0,0,0,0,0,0,0,0,0,0,0,0,0,0,0,0,0,0,0,0,0,0,0,0,0,0,0,0.992,0.991,0.989,0.989,0.988,0.988,0.986,0.986,0.986,0.989,0.991,0.989,0.989,0.988,0.989,0.989,0.994,0.996,0.999,0,1.008,1.015,1.022,1.03,1.032,1.035,1.035,1.037,1.037,1.039,1.041,1.044,1.042,1.039,1.037,1.034,1.03,1.025,1.02,1.015,1.008,1.004,1.002,1,0.999,0.999,0.999,0.997,0.997,0.997,0.996,0.996,0.992,0.991,0.988,0.986,0.984,0.981,0.98,0.977,0.975,0.974,0.974,0.974,0.974,0.977,0.98,0.981,0.984,0.992,0.997,1.002,1.01,1.015,1.02,1.025,1.029,1.032,1.03,1.03,1.029,1.022,1.017,1.013,1.012,1.01,1.01,1.01,1.012,1.018,1.025,1.034,1.041,1.048,1.051,1.055,1.058,1.06,1.06,1.06,1.058,1.055,1.053,1.05,1.046,1.042,1.037,1.032,1.027,1.02,1.017,1.013,1.008,1.007,1.005,1.005,1.004,1.004,1.004,1.002,1.002,0.999,0.999,0.996,0.992,0.991,0.989,0.986,0.983,0.98,0.977,0.974,0.971,0.971,0.968,0.966,0.963,0.963,0.962,0.96,0.959,0.96,0.959,0.959,0.959,0.96,0.959,0.959,0.957,0.956,0.953,0.951,0.948,0.948,0.944,0.938,0.934,0.93,0.924,0.92,0.915,0.909,0.905,0.901,0.9,0.897,0.896,0.896,0.896,0.896,0.899,0.901,0.905,0.911,0.915,0.92,0.924,0.93,0.933,0.937,0.938,0.94,0.938,0.938,0.938,0.94,0.94,0.94,0.941,0.942,0.944,0.945,0.947,0.945,0.947,0.947,0.947,0.947,0.947,0.947,0.945,0.945,0.944,0.944,0.941,0.94,0.938,0.937,0.935,0.935,0.935,0.937,0.937,0.94,0.942,0.944,0.947,0.948,0.95,0.953,0.954,0.956,0.957,0.957,0.957,0.959,0.959,0.959,0.959,0.959,0.959,0.959,0.959,0.959,0.959,0.959,0.959,0.96,0.959,0.959,0.959,0.957,0.959,0.959,0.957,0.957,0.957,0.957,0.957,0.957,0.957,0.957,0.957,0.957,0.957,0.957,0.957,0.957,0.957,0.956,0.956,0.956,0.956,0.956,0.956,0.956,0.956,0.957,0.957,0.957,0.957,0.957,0.957,0.957,0.957,0.957,0.957,0.957,0.957,0.956,0.954,0.954,0.953,0.951,0.951,0.95,0.95,0.95,0.948,0.95,0.951,0.953,0.953,0,0,0,0,0,0,0,0,0.75,0.748,0.747,0.746,0.745,0.743,0.742,0.741,0.739,0.737,0.736,0.735,0.734,0.733,0.732,0.73,0.729,0.728,0.728,0.727,0.727,0.726,0.725,0.725,0.725,0.725,0.725,0.725,0.725,0.725,0.726,0.726,0.728,0.728,0.729,0.73,0.732,0.733,0.735,0.736,0.738,0.74,0.742,0.743,0.746,0.747,0.749,0.75,0.75,0.75,0.75,0.75,0.75,0.75,0.75,0.75,0.751,0.751,0.752,0.753,0.755,0.757,0.759,0.761,0.764,0.765,0.768,0.77,0.77,0.77,0.769,0.768,0.766,0.764,0.761,0.758,0.756,0.755,0.755,0.754,0.754,0.755,0.755,0.755,0.756,0.758,0.759,0.76,0.762,0.762,0.763,0.764,0.764,0.763,0.761,0.758,0.756,0.754,0.751,0.749,0.746,0.745,0.743,0.744,0.745,0.745,0.747,0.748,0.75,0.752,0.754,0.757,0.759,0.762,0.764,0.765,0.767,0.767,0.767,0.767,0.766,0.765,0.764,0.763,0.76,0.757,0.754,0.752,0.751,0.75,0.75,0.749,0.749,0.75,0.75,0.751,0.752,0.754,0.755,0.757,0.759,0.76,0.76,0.761,0.762,0.762,0.762,0.762,0.761
0.963,0.963,0.962,0.96,0.96,0.96,0.96,0.96,0.959,0.959,0.959,0.959,0.962,0.962,0.964,0.966,0.968,0.971,0.974,0.977,0.98,0.983,0.984,0.986,0.988,0.988,0.988,0.989,0.989,0.991,0.989,0.991,0.991,0.988,0.989,0.988,0.988,0.986,0.986,0.986,0.986,0.988,0,0,0,0,1.005,1.007,0,0,0,0,0,0,0,0,0,0,0,0,0,0,0,0,0,0,0,0,0,0,0,0,0,0,0,0,0,0,0,0,0,0,0,0,0,0,0,0,0,0,0,0,0,0,0,0,0,0,0,0,0,0,0,0,0,0,0,0,0,0.991,0.989,0.989,0.988,0.986,0.984,0.984,0.986,0.986,0.988,0.988,0.988,0.988,0.988,0.988,0.989,0.992,0.996,0.999,1.004,1.008,1.015,1.022,1.03,1.034,1.034,1.035,1.034,1.034,1.034,1.035,1.037,1.037,1.034,1.032,1.029,1.025,1.022,1.018,1.012,1.005,1,0.999,0.996,0.994,0.992,0.991,0.991,0.989,0.988,0.989,0.986,0.986,0.984,0.983,0.983,0.981,0.978,0.977,0.974,0.972,0.971,0.971,0.971,0.969,0.971,0.972,0.977,0.978,0.984,0.988,0.994,0,1.007,1.012,1.015,1.02,1.023,1.025,1.025,1.023,1.02,1.017,1.012,1.01,1.008,1.01,1.008,1.01,1.017,1.023,1.032,1.039,1.044,1.05,1.053,1.057,1.057,1.058,1.058,1.057,1.051,1.051,1.046,1.042,1.039,1.034,1.029,1.022,1.017,1.015,1.012,1.007,1.005,1.004,1.004,1.004,1.002,1.002,1.002,1,1,0.997,0.996,0.992,0.991,0.988,0.984,0.98,0.975,0.971,0.968,0.966,0.963,0.96,0.957,0.956,0.956,0.954,0.953,0.953,0.953,0.953,0.951,0.953,0.953,0.953,0.953,0.951,0.948,0.947,0.945,0.945,0.944,0.941,0.937,0.934,0.93,0.926,0.921,0.916,0.912,0.908,0.904,0.903,0.9,0.899,0.899,0.899,0.899,0.901,0.904,0.908,0.912,0.916,0.92,0.924,0.93,0.933,0.935,0.937,0.937,0.937,0.937,0.935,0.937,0.937,0.938,0.938,0.94,0.941,0.942,0.942,0.942,0.941,0.942,0.942,0.942,0.942,0.942,0.942,0.941,0.941,0.94,0.938,0.935,0.934,0.933,0.931,0.931,0.93,0.93,0.931,0.933,0.935,0.937,0.938,0.94,0.942,0.945,0.947,0.948,0.948,0.95,0.951,0.951,0.951,0.951,0.953,0.953,0.953,0.953,0.954,0.953,0.953,0.953,0.954,0.954,0.951,0.951,0.951,0.951,0.951,0.951,0.951,0.951,0.953,0.953,0.951,0.951,0.953,0.953,0.953,0.954,0.953,0.953,0.951,0.951,0.951,0.951,0.951,0.95,0.95,0.95,0.95,0.95,0.951,0.951,0.951,0.953,0.953,0.953,0.953,0.953,0.953,0.953,0.953,0.951,0.951,0.95,0.948,0.948,0.947,0.945,0.945,0.945,0.944,0.944,0.944,0.945,0.945,0.947,0.947,0,0,0,0,0,0,0,0,0.748,0.747,0.745,0.744,0.743,0.742,0.74,0.738,0.737,0.735,0.735,0.734,0.732,0.731,0.73,0.728,0.728,0.727,0.726,0.726,0.725,0.725,0.725,0.724,0.724,0.724,0.724,0.724,0.724,0.724,0.724,0.725,0.725,0.726,0.727,0.728,0.729,0.73,0.732,0.733,0.735,0.736,0.737,0.739,0.741,0.742,0.743,0.744,0.744,0.744,0.745,0.745,0.746,0.745,0.746,0.746,0.747,0.747,0.749,0.751,0.751,0.752,0.755,0.757,0.76,0.763,0.764,0.767,0.768,0.768,0.767,0.766,0.764,0.761,0.758,0.756,0.753,0.752,0.751,0.752,0.752,0.752,0.752,0.753,0.754,0.755,0.755,0.756,0.757,0.757,0.757,0.758,0.757,0.756,0.753,0.752,0.75,0.748,0.746,0.743,0.742,0.74,0.74,0.739,0.74,0.741,0.742,0.743,0.745,0.747,0.75,0.751,0.755,0.757,0.76,0.762,0.764,0.765,0.765,0.764,0.764,0.762,0.76,0.758,0.754,0.751,0.749,0.747,0.746,0.745,0.744,0.744,0.744,0.745,0.746,0.748,0.749,0.751,0.751,0.753,0.755,0.756,0.757,0.757,0.758,0.759,0.759,0.758,0.758
0.959,0.959,0.957,0.956,0.956,0.956,0.956,0.956,0.954,0.954,0.954,0.956,0.957,0.959,0.96,0.962,0.963,0.966,0.969,0.974,0.978,0.981,0.983,0.983,0.986,0.988,0.988,0.989,0.989,0.991,0.991,0.991,0.991,0.991,0.989,0.991,0.989,0.989,0.988,0.988,0,0,0,0,0,0,0,0,0,0,0,0,0,0,0,0,0,0,0,0,0,0,0,0,0,0,0,0,0,0,0,0,0,0,0,0,0,0,0,0,0,0,0,0,0,0,0,0,0,0,0,0,0,0,0,0,0,0,0,0,0,0,0,0,0,0,0,0,0,0,0,0,0.986,0.984,0.983,0.984,0.983,0.984,0.984,0.986,0.986,0.986,0,0.989,0.989,0.991,0.997,1,1.004,1.008,1.015,1.02,1.027,1.032,1.032,1.032,1.032,1.03,1.03,1.032,1.032,1.032,1.03,1.029,1.025,1.023,1.02,1.017,1.012,1.005,1,0.996,0.994,0.991,0.989,0.986,0.986,0.983,0.983,0.983,0.983,0.98,0.98,0.98,0.978,0.977,0.975,0.974,0.972,0.969,0.968,0.968,0.968,0.966,0.968,0.969,0.971,0.972,0.978,0.98,0.986,0.992,0.997,1.004,1.007,1.012,1.017,1.018,1.02,1.018,1.015,1.013,1.012,1.01,1.01,1.01,1.01,1.012,1.017,1.023,1.032,1.037,1.042,1.046,1.048,1.053,1.055,1.053,1.055,1.053,1.05,1.046,1.042,1.037,1.034,1.029,1.023,1.017,1.013,1.01,1.005,1.005,1.004,1.004,1.002,1.002,1.002,1,1,1,0.999,0.997,0.994,0.992,0.989,0.986,0.983,0.977,0.969,0.966,0.963,0.959,0.957,0.953,0.951,0.948,0.948,0.947,0.947,0.945,0.947,0.947,0.945,0.945,0.947,0.947,0.945,0.945,0.944,0.941,0.942,0.942,0.941,0.94,0.937,0.934,0.93,0.927,0.923,0.919,0.913,0.909,0.907,0.905,0.904,0.903,0.901,0.901,0.903,0.904,0.907,0.909,0.913,0.916,0.92,0.924,0.928,0.933,0.934,0.935,0.934,0.934,0.934,0.934,0.934,0.935,0.935,0.935,0.937,0.937,0.938,0.938,0.937,0.938,0.938,0.938,0.938,0.94,0.94,0.938,0.937,0.937,0.935,0.934,0.933,0.93,0.93,0.928,0.927,0.927,0.927,0.927,0.928,0.928,0.93,0.931,0.934,0.935,0.938,0.94,0.941,0.942,0.942,0.942,0.944,0.944,0.945,0.947,0.947,0.947,0.948,0.948,0.947,0.948,0.947,0.947,0.947,0.945,0.945,0.945,0.945,0.945,0.945,0.945,0.947,0.947,0.947,0.947,0.947,0.948,0.948,0.948,0.948,0.948,0.948,0.948,0.948,0.947,0.947,0.945,0.945,0.945,0.945,0.945,0.945,0.945,0.947,0.947,0.947,0.947,0.948,0.948,0.948,0.948,0.947,0.947,0.947,0.945,0.944,0.942,0.941,0.941,0.94,0.938,0.938,0.94,0.94,0.94,0.941,0.941,0.942,0.944,0.944,0,0,0,0,0,0,0,0.745,0.744,0.742,0.742,0.741,0.739,0.737,0.735,0.735,0.734,0.732,0.732,0.73,0.729,0.728,0.728,0.727,0.726,0.725,0.724,0.723,0.724,0.723,0.723,0.723,0.723,0.723,0.723,0.723,0.723,0.723,0.723,0.723,0.724,0.725,0.726,0.727,0.728,0.729,0.73,0.731,0.733,0.734,0.735,0.736,0.737,0.738,0.739,0.741,0.741,0.742,0.742,0.742,0.742,0.742,0.743,0.744,0.744,0.745,0.746,0.747,0.749,0.751,0.753,0.756,0.759,0.761,0.764,0.765,0.766,0.765,0.764,0.761,0.758,0.755,0.752,0.751,0.751,0.75,0.75,0.75,0.751,0.751,0.752,0.752,0.752,0.753,0.753,0.753,0.752,0.751,0.751,0.751,0.749,0.747,0.746,0.743,0.742,0.741,0.739,0.737,0.736,0.735,0.736,0.736,0.736,0.738,0.74,0.742,0.743,0.746,0.748,0.751,0.753,0.756,0.758,0.76,0.761,0.761,0.76,0.759,0.757,0.755,0.752,0.75,0.747,0.744,0.742,0.742,0.742,0.741,0.74,0.741,0.742,0.742,0.744,0.745,0.747,0.749,0.751,0.752,0.753,0.753,0.754,0.755,0.755,0.755,0.755,0.754
0.953,0.953,0.951,0.951,0.951,0.951,0.951,0.95,0.95,0.95,0.95,0.951,0.951,0.953,0.956,0.957,0.959,0.962,0.966,0.969,0.974,0.977,0.98,0.983,0.984,0.986,0.988,0.989,0.991,0.991,0.992,0.994,0.994,0.994,0.994,0.994,0.994,0,0,0,0,0,0,0,0,0,0,0,0,0,0,0,0,0,0,0,0,0,0,0,0,0,0,0,0,0,0,0,0,0,0,0,0,0,0,0,0,0,0,0,0,0,0,0,0,0,0,0,0,0,0,0,0,0,0,0,0,0,0,0,0,0,0,0,0,0,0,0,0,0,0,0,0,0,0,0,0,0.981,0.983,0.984,0.984,0.984,0,0.988,0.989,0.992,0.997,1,0,0,0,0,1.027,1.03,1.03,1.032,1.032,1.027,1.027,1.027,1.029,1.029,1.025,1.023,1.022,1.02,1.018,1.015,1.012,1.005,0.999,0.994,0.991,0.988,0.984,0.981,0.98,0.98,0.978,0.977,0.978,0.977,0.977,0.977,0.977,0.975,0.972,0.972,0.969,0.968,0.968,0.966,0.964,0.964,0.964,0.964,0.969,0.969,0.972,0.977,0.98,0.986,0.991,0.996,1,1.007,1.008,1.013,1.015,1.013,1.012,1.008,1.008,1.007,1.007,1.008,1.008,1.01,1.015,1.022,1.03,1.035,1.041,1.041,1.044,1.048,1.05,1.05,1.05,1.046,1.042,1.037,1.034,1.03,1.025,1.02,1.015,1.012,1.007,1.005,1.004,1.002,1.002,1.002,1,1,1,0.999,0.999,0.999,0.997,0.996,0.992,0.989,0.988,0.983,0.978,0.972,0.964,0.96,0.956,0.953,0.95,0.948,0.945,0.944,0.942,0.941,0.941,0.94,0.941,0.941,0.94,0.94,0.94,0.941,0.94,0.94,0.938,0.937,0.938,0.938,0.938,0.937,0.935,0.933,0.93,0.927,0.923,0.92,0.916,0.912,0.909,0.908,0.907,0.907,0.905,0.905,0.905,0.907,0.908,0.912,0.913,0.917,0.92,0.923,0.927,0.93,0.933,0.933,0.933,0.931,0.931,0.931,0.931,0.933,0.931,0.931,0.933,0.934,0.934,0.934,0.934,0.934,0.934,0.934,0.934,0.934,0.934,0.933,0.933,0.933,0.933,0.931,0.93,0.927,0.927,0.926,0.926,0.924,0.924,0.924,0.924,0.924,0.926,0.927,0.928,0.93,0.933,0.934,0.935,0.935,0.937,0.937,0.937,0.937,0.938,0.94,0.94,0.94,0.941,0.941,0.941,0.941,0.941,0.941,0.94,0.938,0.938,0.938,0.938,0.938,0.94,0.94,0.94,0.941,0.942,0.942,0.942,0.942,0.944,0.944,0.944,0.944,0.944,0.944,0.944,0.942,0.941,0.941,0.941,0.94,0.94,0.94,0.94,0.941,0.941,0.942,0.942,0.942,0.942,0.944,0.944,0.942,0.942,0.942,0.941,0.94,0.938,0.937,0.935,0.934,0.933,0.933,0.933,0.934,0.934,0.935,0.935,0.937,0.938,0.938,0,0,0,0,0,0,0,0.745,0.744,0.742,0.742,0.741,0.739,0.737,0.735,0.734,0.733,0.731,0.73,0.73,0.729,0.728,0.727,0.726,0.725,0.725,0.723,0.723,0.722,0.723,0.723,0.722,0.722,0.721,0.721,0.721,0.721,0.721,0.72,0.721,0.721,0.722,0.723,0.723,0.724,0.725,0.726,0.728,0.728,0.729,0.73,0.731,0.733,0.734,0.735,0.736,0.737,0.738,0.738,0.739,0.74,0.74,0.741,0.741,0.741,0.742,0.742,0.743,0.743,0.744,0.746,0.749,0.751,0.753,0.756,0.758,0.759,0.761,0.76,0.759,0.756,0.753,0.751,0.749,0.748,0.747,0.747,0.747,0.747,0.748,0.749,0.75,0.75,0.751,0.751,0.751,0.75,0.749,0.748,0.747,0.745,0.743,0.742,0.741,0.739,0.737,0.737,0.735,0.734,0.733,0.733,0.733,0.733,0.734,0.735,0.737,0.738,0.74,0.742,0.744,0.746,0.749,0.751,0.753,0.754,0.754,0.754,0.754,0.753,0.751,0.75,0.748,0.745,0.742,0.74,0.738,0.738,0.737,0.737,0.736,0.737,0.738,0.74,0.742,0.742,0.744,0.746,0.748,0.749,0.751,0.751,0.751,0.752,0.752,0.752,0.751,0.751
0.947,0.947,0.945,0.945,0.945,0.947,0.945,0.945,0.945,0.945,0.945,0.945,0.947,0.947,0.95,0.951,0.954,0.956,0.96,0.964,0.968,0.972,0.977,0.978,0.981,0.984,0.988,0.989,0.992,0.992,0.994,0.996,0.996,0.997,0.996,0.996,0,0,0,0,0,0,0,0,0,0,0,0,0,0,0,0,0,0,0,0,0,0,0,0,0,0,0,0,0,0,0,0,0,0,0,0,0,0,0,0,0,0,0,0,0,0,0,0,0,0,0,0,0,0,0,0,0,0,0,0,0,0,0,0,0,0,0,0,0,0,0,0,0,0,0,0,0,0,0,0,0,0,0.981,0.981,0.984,0.984,0.984,0.988,0.989,0.992,0.997,0.999,0,0,0,0,0,0,0,1.03,1.027,1.025,1.025,1.025,1.025,1.025,1.022,1.022,1.02,1.018,1.017,1.015,1.01,1.004,0.997,0.992,0.988,0.983,0.98,0.978,0.977,0.975,0.974,0.974,0.974,0.972,0.971,0.972,0.974,0.971,0.971,0.971,0.968,0.966,0.966,0.966,0.963,0.963,0.963,0.964,0.964,0.966,0.968,0.971,0.975,0.978,0.984,0.989,0.994,0.999,1.004,1.007,1.008,1.008,1.007,1.005,1.004,1.004,1.005,1.005,1.007,1.008,1.012,1.02,1.025,1.029,1.034,1.037,1.039,1.041,1.041,1.041,1.039,1.035,1.032,1.029,1.025,1.022,1.015,1.013,1.01,1.005,1.004,1.002,1.002,1,1,1,0.999,0.999,0.999,0.997,0.997,0.997,0.997,0.992,0.991,0.988,0.983,0.978,0.972,0.966,0.96,0.956,0.951,0.95,0.947,0.944,0.941,0.941,0.938,0.938,0.937,0.937,0.935,0.935,0.934,0.934,0.934,0.934,0.934,0.934,0.934,0.934,0.934,0.934,0.935,0.934,0.933,0.931,0.928,0.926,0.923,0.92,0.917,0.913,0.912,0.911,0.909,0.909,0.908,0.908,0.908,0.909,0.911,0.912,0.915,0.917,0.92,0.923,0.926,0.928,0.93,0.93,0.93,0.928,0.928,0.928,0.928,0.928,0.928,0.928,0.928,0.93,0.93,0.93,0.928,0.93,0.93,0.93,0.93,0.93,0.93,0.93,0.928,0.928,0.928,0.928,0.927,0.926,0.924,0.924,0.923,0.921,0.921,0.92,0.92,0.921,0.921,0.923,0.923,0.926,0.927,0.928,0.93,0.93,0.93,0.931,0.931,0.931,0.931,0.934,0.934,0.934,0.935,0.935,0.935,0.935,0.934,0.934,0.934,0.933,0.933,0.933,0.933,0.933,0.934,0.934,0.934,0.935,0.937,0.937,0.937,0.937,0.938,0.938,0.938,0.94,0.938,0.938,0.938,0.937,0.937,0.935,0.935,0.935,0.935,0.935,0.935,0.935,0.937,0.937,0.937,0.938,0.938,0.938,0.938,0.938,0.938,0.937,0.937,0.935,0.934,0.931,0.93,0.93,0.928,0.927,0.927,0.928,0.93,0.93,0.931,0.931,0.933,0.934,0,0,0,0,0,0,0,0,0.742,0.74,0.739,0.738,0.737,0.735,0.734,0.732,0.731,0.729,0.728,0.728,0.728,0.727,0.725,0.725,0.724,0.723,0.723,0.722,0.721,0.721,0.721,0.72,0.72,0.72,0.719,0.719,0.719,0.718,0.718,0.719,0.719,0.72,0.721,0.722,0.723,0.723,0.723,0.723,0.725,0.726,0.727,0.728,0.728,0.73,0.731,0.733,0.735,0.735,0.736,0.736,0.737,0.737,0.738,0.738,0.738,0.738,0.739,0.74,0.739,0.74,0.742,0.743,0.745,0.747,0.749,0.75,0.751,0.752,0.752,0.751,0.75,0.748,0.745,0.744,0.742,0.742,0.742,0.742,0.744,0.744,0.745,0.746,0.746,0.747,0.748,0.747,0.747,0.745,0.744,0.742,0.741,0.74,0.738,0.736,0.734,0.733,0.732,0.73,0.729,0.728,0.729,0.729,0.73,0.731,0.732,0.734,0.735,0.737,0.739,0.742,0.743,0.745,0.747,0.748,0.75,0.75,0.749,0.749,0.747,0.745,0.743,0.742,0.739,0.737,0.735,0.734,0.734,0.733,0.733,0.733,0.734,0.735,0.736,0.739,0.741,0.742,0.743,0.745,0.747,0.748,0.749,0.749,0.75,0.75,0.75,0.75,0.749
0.941,0.94,0.94,0.94,0.94,0.941,0.941,0.941,0.941,0.941,0.941,0.942,0.942,0.942,0.944,0.945,0.947,0.951,0.954,0.959,0.962,0.966,0.972,0.975,0,0.981,0.984,0.988,0.991,0.992,0.996,0.996,0.997,0,0,0,0,0,0,0,0,0,0,0,0,0,0,0,0,0,0,0,0,0,0,0,0,0,0,0,0,0,0,0,0,0,0,0,0,0,0,0,0,0,0,0,0,0,0,0,0,0,0,0,0,0,0,0,0,0,0,0,0,0,0,0,0,0,0,0,0,0,0,0,0,0,0,0,0,0,0,0,0,0,0,0,0,0,0,0,0,0,0,0,0.988,0.992,0,0,0,0,0,0,0,0,0,0,1.027,1.023,1.023,1.023,1.023,1.023,1.02,1.02,1.018,1.017,1.017,1.013,1.01,1.002,0.994,0.989,0.984,0.981,0.977,0.975,0.972,0.971,0.969,0.969,0.968,0.968,0.968,0.968,0.969,0.968,0.968,0.968,0.968,0.966,0.966,0.966,0.963,0.963,0.963,0.963,0.963,0.964,0.966,0.968,0.972,0.975,0.978,0.983,0.988,0.992,0.997,1,1.002,1.002,1.002,1,1,1,1.002,1.004,1.005,1.007,1.01,1.015,1.023,1.027,1.029,1.032,1.032,1.032,1.034,1.032,1.03,1.027,1.02,1.018,1.015,1.012,1.008,1.007,1.002,1.002,1,1,0.999,0.999,0.997,0.997,0.997,0.997,0.996,0.996,0.994,0.992,0.991,0.989,0.986,0.983,0.978,0.974,0.968,0.96,0.954,0.951,0.947,0.945,0.942,0.941,0.937,0.937,0.935,0.934,0.933,0.931,0.931,0.93,0.928,0.928,0.93,0.93,0.928,0.928,0.928,0.93,0.93,0.93,0.93,0.93,0.928,0.927,0.927,0.924,0.921,0.92,0.917,0.915,0.912,0.912,0.912,0.911,0.911,0.909,0.911,0.911,0.912,0.913,0.916,0.917,0.92,0.921,0.924,0.926,0.927,0.927,0.927,0.926,0.926,0.926,0.924,0.924,0.924,0.924,0.926,0.926,0.926,0.924,0.924,0.926,0.924,0.924,0.926,0.926,0.926,0.924,0.924,0.924,0.924,0.924,0.924,0.923,0.923,0.921,0.92,0.92,0.919,0.917,0.917,0.917,0.919,0.919,0.919,0.92,0.921,0.923,0.924,0.924,0.924,0.924,0.924,0.927,0.927,0.927,0.927,0.928,0.93,0.93,0.931,0.931,0.93,0.928,0.928,0.927,0.927,0.927,0.927,0.927,0.928,0.928,0.93,0.931,0.931,0.931,0.931,0.933,0.933,0.934,0.934,0.934,0.934,0.934,0.933,0.931,0.931,0.931,0.931,0.931,0.931,0.931,0.931,0.931,0.931,0.933,0.933,0.933,0.934,0.934,0.934,0.933,0.933,0.933,0.931,0.931,0.93,0.927,0.927,0.926,0.924,0.923,0.923,0.924,0.926,0.926,0.926,0.927,0.927,0,0,0,0,0,0,0,0,0,0.741,0.738,0.737,0.736,0.735,0.734,0.732,0.731,0.729,0.728,0.727,0.727,0.726,0.725,0.723,0.723,0.723,0.722,0.721,0.721,0.719,0.72,0.719,0.718,0.718,0.718,0.718,0.718,0.717,0.717,0.717,0.717,0.717,0.718,0.718,0.719,0.72,0.72,0.721,0.721,0.722,0.723,0.723,0.725,0.726,0.727,0.728,0.73,0.732,0.733,0.734,0.735,0.735,0.735,0.736,0.735,0.735,0.735,0.736,0.736,0.735,0.736,0.737,0.737,0.739,0.741,0.741,0.741,0.742,0.744,0.744,0.743,0.741,0.741,0.74,0.739,0.739,0.738,0.738,0.739,0.74,0.741,0.742,0.742,0.742,0.744,0.744,0.743,0.743,0.742,0.741,0.739,0.737,0.736,0.735,0.733,0.731,0.729,0.728,0.727,0.726,0.725,0.726,0.726,0.727,0.728,0.729,0.732,0.733,0.735,0.736,0.739,0.741,0.742,0.743,0.744,0.744,0.744,0.743,0.742,0,0,0.737,0.735,0.733,0.731,0.73,0.728,0.729,0.729,0.73,0.73,0.731,0.732,0.735,0.736,0.738,0.741,0.742,0.744,0.745,0.746,0.747,0.747,0.748,0.748,0.748,0.747,0.747
0.935,0.934,0.934,0.934,0.934,0.935,0.935,0.935,0.937,0.935,0.937,0.937,0.937,0.938,0.938,0.94,0.941,0.942,0.947,0.95,0.954,0.959,0.964,0,0,0.978,0,0.984,0.989,0.991,0.994,0.997,0.999,1.002,0,0,0,0,0,0,0,0,0,0,0,0,0,0,0,0,0,0,0,0,0,0,0,0,0,0,0,0,0,0,0,0,0,0,0,0,0,0,0,0,0,0,0,0,0,0,0,0,0,0,0,0,0,0,0,0,0,0,0,0,0,0,0,0,0,0,0,0,0,0,0,0,0,0,0,0,0,0,0,0,0,0,0,0,0,0,0,0,0,0,0,0,0,0,0,0,0,0,0,0,0,0,0,0,1.023,1.023,1.023,1.022,1.022,1.02,1.018,1.017,1.015,1.012,1.007,1,0.992,0.988,0.981,0.978,0.975,0.971,0.969,0.968,0.966,0.964,0.964,0.964,0.963,0.964,0.966,0.966,0.968,0.968,0.966,0.968,0.966,0.966,0.966,0.963,0.963,0.963,0.964,0.964,0.966,0.968,0.969,0.972,0.975,0.98,0.984,0.988,0.991,0.994,0.999,0.999,0.999,0.999,0.999,1,1.002,1.005,1.007,1.01,1.012,1.017,1.022,1.023,1.025,1.027,1.025,1.025,1.023,1.022,1.018,1.015,1.012,1.008,1.007,1.005,1.004,1.004,1.002,1,1,1,0.999,0.997,0.997,0.996,0.994,0.992,0.992,0.991,0.989,0.986,0.984,0.983,0.98,0.977,0.972,0.968,0.962,0.957,0.95,0.947,0.944,0.941,0.941,0.938,0.935,0.934,0.933,0.933,0.931,0.93,0.928,0.927,0.926,0.926,0.926,0.926,0.926,0.924,0.924,0.924,0.924,0.926,0.926,0.926,0.924,0.924,0.923,0.921,0.919,0.917,0.916,0.915,0.913,0.912,0.913,0.912,0.912,0.911,0.912,0.912,0.913,0.913,0.916,0.917,0.919,0.92,0.923,0.924,0.924,0.924,0.924,0.923,0.921,0.92,0.921,0.92,0.92,0.921,0.921,0.921,0.921,0.921,0.921,0.921,0.92,0.92,0.921,0.92,0.92,0.92,0.92,0.92,0.92,0.92,0.92,0.92,0.919,0.919,0.917,0.917,0.916,0.915,0.915,0.915,0.915,0.916,0.916,0.917,0.917,0.92,0.92,0.92,0.92,0.92,0.92,0.921,0.921,0.921,0.923,0.923,0.924,0.926,0.926,0.926,0.924,0.924,0.924,0.923,0.923,0.923,0.923,0.923,0.923,0.924,0.924,0.926,0.926,0.926,0.926,0.927,0.927,0.927,0.927,0.927,0.928,0.928,0.927,0.927,0.926,0.926,0.926,0.926,0.926,0.926,0.926,0.926,0.927,0.927,0.927,0.928,0.928,0.928,0.928,0.927,0.927,0.927,0.926,0.924,0.923,0.923,0.921,0.921,0.921,0.92,0.92,0.92,0.921,0.921,0.923,0.923,0.924,0,0,0,0,0,0,0,0,0,0.739,0.736,0.736,0.735,0.734,0.733,0.731,0.729,0.728,0.728,0.726,0.725,0.724,0.723,0.723,0.722,0.721,0.72,0.719,0.719,0.718,0.718,0.718,0.717,0.717,0.717,0.716,0.716,0.715,0.715,0.714,0.714,0.715,0.715,0.716,0.717,0.717,0.718,0.718,0.718,0.719,0.72,0.722,0.723,0.723,0.725,0.727,0.728,0.73,0.731,0.732,0.733,0.733,0.734,0.735,0.734,0.735,0.734,0.734,0.734,0.733,0.733,0.733,0.733,0.732,0.733,0,0.733,0.733,0.734,0.734,0.734,0.733,0.733,0.733,0.733,0.733,0.734,0.734,0.734,0.735,0.736,0.737,0.739,0.738,0.74,0.741,0.74,0.74,0.739,0.738,0.736,0.735,0.733,0.731,0.728,0.728,0.726,0.724,0.723,0.723,0.723,0.723,0.723,0.724,0.726,0.728,0.729,0.731,0.734,0.735,0.737,0.739,0.74,0.741,0.741,0.741,0.74,0.739,0.737,0.735,0.734,0.731,0.729,0.727,0.726,0.725,0.724,0.724,0.725,0.725,0.726,0.727,0.728,0.731,0.733,0.735,0.737,0.739,0.741,0.742,0.743,0.745,0.745,0.746,0.746,0.746,0.746,0.745
0.928,0.928,0.928,0.928,0.928,0.93,0.93,0.93,0.931,0.93,0.931,0.931,0.931,0.931,0.931,0.933,0.933,0.935,0.937,0.94,0.942,0.947,0.953,0,0,0.968,0.975,0.981,0.986,0.989,0.994,0.996,0.999,1.002,0,1.005,1.007,0,0,0,0,0,0,0,0,0,0,0,0,0,0,0,0,0,0,0,0,0,0,0,0,0,0,0,0,0,0,0,0,0,0,0,0,0,0,0,0,0,0,0,0,0,0,0,0,0,0,0,0,0,0,0,0,0,0,0,0,0,0,0,0,0,0,0,0,0,0,0,0,0,0,0,0,0,0,0,0,0,0,0,0,0,0,0,0,0,0,0,0,0,0,0,0,0,0,0,0,0,0,1.025,1.025,1.023,1.022,1.018,1.018,1.017,1.015,1.01,1.005,0.999,0.991,0.986,0.98,0.977,0.971,0.968,0.968,0.964,0.963,0.963,0.963,0.963,0.963,0.964,0.966,0.968,0.966,0.968,0.968,0.968,0.968,0.968,0.966,0.966,0.966,0.966,0.968,0.968,0.969,0.969,0.972,0.974,0.978,0.98,0.984,0.988,0.991,0.994,0.997,0.999,1,1,1.002,1.004,1.007,1.008,1.012,1.013,1.017,1.022,1.025,1.029,1.029,1.029,1.027,1.025,1.023,1.02,1.017,1.013,1.012,1.008,1.008,1.007,1.005,1.005,1.004,1.004,1.002,1.002,1,0.999,0.997,0.994,0.989,0.986,0.984,0.981,0.977,0.975,0.974,0.971,0.968,0.964,0.96,0.956,0.953,0.948,0.944,0.941,0.94,0.938,0.935,0.935,0.933,0.931,0.93,0.93,0.928,0.927,0.926,0.923,0.923,0.921,0.921,0.923,0.921,0.92,0.92,0.92,0.921,0.921,0.92,0.92,0.919,0.919,0.919,0.917,0.916,0.915,0.913,0.912,0.912,0.912,0.912,0.912,0.912,0.912,0.912,0.912,0.913,0.913,0.915,0.916,0.917,0.919,0.919,0.92,0.92,0.92,0.92,0.917,0.917,0.916,0.916,0.916,0.916,0.917,0.917,0.917,0.917,0.917,0.917,0.916,0.916,0.916,0.916,0.915,0.915,0.915,0.915,0.915,0.915,0.916,0.916,0.916,0.916,0.915,0.915,0.915,0.913,0.912,0.912,0.912,0.912,0.912,0.912,0.913,0.915,0.915,0.915,0.915,0.915,0.915,0.915,0.916,0.916,0.917,0.917,0.917,0.919,0.92,0.92,0.92,0.92,0.919,0.919,0.919,0.919,0.919,0.92,0.92,0.92,0.92,0.921,0.921,0.921,0.921,0.921,0.921,0.921,0.921,0.923,0.921,0.921,0.923,0.921,0.921,0.92,0.92,0.92,0.92,0.92,0.92,0.921,0.921,0.921,0.921,0.923,0.923,0.923,0.923,0.923,0.921,0.923,0.921,0.92,0.92,0.919,0.919,0.917,0.916,0.916,0.916,0.916,0.916,0.917,0.917,0.917,0.919,0.919,0.92,0,0,0,0,0,0,0,0,0.736,0.735,0.735,0.734,0.733,0.732,0.73,0.729,0.728,0.727,0.725,0.724,0.723,0.723,0.721,0.721,0.72,0.718,0.718,0.718,0.717,0.717,0.716,0.715,0.715,0.714,0.714,0.714,0.713,0.713,0.713,0.713,0.713,0.713,0.713,0.714,0.714,0.715,0.715,0.715,0.716,0.717,0.718,0.719,0.721,0.723,0.724,0.726,0.728,0.729,0.73,0.731,0.732,0.733,0.733,0.733,0.733,0.732,0.733,0.732,0.731,0.73,0.729,0.728,0.728,0.727,0.726,0.726,0.725,0.726,0.726,0.725,0.725,0.726,0.725,0.726,0.726,0.727,0.728,0.728,0.729,0.73,0.732,0.733,0.734,0.735,0.735,0.735,0.735,0.734,0.732,0.731,0.729,0.728,0.727,0.725,0.723,0.722,0.721,0.72,0.719,0.718,0.719,0.719,0.721,0.723,0.725,0.727,0.729,0.731,0.734,0.735,0.736,0.737,0.737,0.737,0.737,0.735,0.734,0.733,0.73,0.727,0.725,0.723,0.721,0.72,0.719,0.719,0.719,0.719,0.721,0.722,0.723,0.724,0.727,0.728,0.73,0.733,0.735,0.736,0.738,0.741,0.742,0.743,0.744,0.746,0.746,0.744,0.743
0.923,0.923,0.921,0.921,0.923,0.923,0.924,0.924,0.924,0.924,0.924,0.924,0.924,0.924,0.924,0.926,0.924,0.926,0.928,0.928,0.931,0.935,0.941,0,0.953,0.959,0.966,0.974,0.981,0.986,0.991,0.994,0.997,1.002,1.004,1.005,0,0,0,0,0,0,0,0,0,0,0,0,0,0,0,0,0,0,0,0,0,0,0,0,0,0,0,0,0,0,0,0,0,0,0,0,0,0,0,0,0,0,0,0,0,0,0,0,0,0,0,0,0,0,0,0,0,0,0,0,0,0,0,0,0,0,0,0,0,0,0,0,0,0,0,0,0,0,0,0,0,0,0,0,0,0,0,0,0,0,0,0,0,0,0,0,0,0,0,0,0,0,0,1.027,1.027,1.025,1.023,1.02,1.017,1.017,1.013,1.01,1.004,0.997,0.991,0.984,0.98,0.975,0.971,0.968,0.966,0.964,0.963,0.963,0.963,0.963,0.963,0.963,0.964,0.966,0.968,0.968,0.968,0.969,0.971,0.972,0.969,0.968,0.968,0.968,0.969,0.971,0.971,0.972,0.974,0.977,0.98,0.983,0.988,0.989,0.992,0.996,0.997,0.999,1,1.002,1.004,1.005,1.008,1.013,1.015,1.018,1.022,1.027,1.03,1.032,1.032,1.03,1.029,1.027,1.023,1.02,1.015,1.013,1.01,1.008,1.008,1.007,1.007,1.007,1.005,1.005,1.004,1.004,1.002,1,0.996,0.989,0.983,0.98,0.974,0.968,0.964,0.959,0.956,0.954,0.951,0.95,0.947,0.944,0.941,0.938,0.938,0.937,0.935,0.934,0.934,0.933,0.93,0.93,0.928,0.927,0.926,0.924,0.923,0.921,0.92,0.919,0.917,0.917,0.917,0.917,0.916,0.916,0.916,0.917,0.916,0.916,0.915,0.915,0.913,0.913,0.912,0.911,0.911,0.911,0.911,0.911,0.911,0.911,0.911,0.911,0.912,0.912,0.912,0.912,0.913,0.913,0.915,0.916,0.916,0.917,0.917,0.916,0.915,0.913,0.912,0.912,0.912,0.912,0.912,0.912,0.913,0.913,0.913,0.913,0.913,0.912,0.912,0.912,0.911,0.911,0.911,0.911,0.911,0.911,0.911,0.911,0.912,0.912,0.913,0.913,0.912,0.912,0.911,0.909,0.909,0.908,0.908,0.908,0.908,0.909,0.909,0.911,0.911,0.911,0.909,0.909,0.909,0.911,0.911,0.912,0.913,0.913,0.915,0.916,0.916,0.915,0.915,0.915,0.913,0.913,0.915,0.915,0.915,0.915,0.916,0.916,0.916,0.916,0.916,0.916,0.916,0.916,0.917,0.917,0.917,0.916,0.916,0.916,0.916,0.916,0.916,0.915,0.916,0.916,0.916,0.916,0.916,0.916,0.916,0.917,0.917,0.917,0.917,0.917,0.916,0.916,0.916,0.916,0.915,0.915,0.913,0.913,0.913,0.912,0.912,0.911,0.911,0.912,0.912,0.913,0.913,0.913,0.913,0.915,0.915,0,0,0,0,0,0,0,0.735,0.734,0.734,0.733,0.732,0.73,0.729,0.728,0.727,0.726,0.724,0.723,0.723,0.721,0.72,0.719,0.718,0.718,0.717,0.716,0.715,0.715,0.714,0.713,0.713,0.713,0.713,0.713,0.712,0.712,0.711,0.711,0.711,0.711,0.711,0.712,0.712,0.712,0.712,0.712,0.713,0.713,0.714,0.716,0.718,0.72,0.722,0.724,0.726,0.728,0.728,0.73,0.731,0.731,0.732,0.732,0.731,0.731,0.731,0.73,0.728,0.728,0.726,0.724,0.723,0.723,0.721,0.72,0.719,0.718,0.718,0.718,0.718,0.718,0.718,0.718,0.719,0.719,0.721,0.722,0.723,0.724,0.726,0.728,0.728,0.729,0.729,0.729,0.728,0.728,0.728,0.726,0.725,0.723,0.722,0.72,0.719,0.718,0.717,0.716,0.716,0.715,0.716,0.716,0.718,0.72,0.723,0.725,0.728,0.73,0.732,0.734,0.735,0.735,0.735,0.735,0.734,0.731,0.729,0.727,0.724,0.721,0.719,0.717,0.714,0.714,0.713,0.713,0.714,0.715,0.716,0.718,0.718,0.72,0.723,0.724,0.726,0.728,0.729,0.732,0.734,0.735,0.735,0.735,0,0,0,0,0.733
0.917,0.917,0.917,0.917,0.917,0.917,0.919,0.919,0.919,0.919,0.919,0.917,0.919,0.919,0.917,0.917,0.917,0.917,0.92,0.92,0.921,0.924,0.927,0.933,0.94,0.947,0.957,0.966,0.974,0.983,0.989,0.996,0.999,1,1.002,1.005,0,0,0,0,0,0,0,0,0,0,0,0,0,0,0,0,0,0,0,0,0,0,0,0,0,0,0,0,0,0,0,0,0,0,0,0,0,0,0,0,0,0,0,0,0,0,0,0,0,0,0,0,0,0,0,0,0,0,0,0,0,0,0,0,0,0,0,0,0,0,0,0,0,0,0,0,0,0,0,0,0,0,0,0,0,0,0,0,0,0,0,0,0,0,0,0,0,0,0,0,0,1.032,1.03,1.03,1.029,1.027,1.025,1.022,1.018,1.017,1.013,1.008,1.005,0.997,0.991,0.988,0.981,0.977,0.974,0.969,0.966,0.964,0.963,0.962,0.964,0.964,0.963,0.964,0.966,0.968,0.968,0.971,0.971,0.971,0.972,0.974,0.974,0.974,0.974,0.974,0.975,0.977,0.977,0.978,0.978,0.981,0.984,0.986,0.989,0.992,0.992,0.996,0.997,0.999,1,1.002,1.005,1.008,1.012,1.015,1.018,1.022,1.027,1.032,1.035,1.035,1.035,1.032,1.03,1.027,1.023,1.018,1.015,1.012,1.01,1.008,1.008,1.008,1.008,1.008,1.007,1.007,1.005,1.004,1.002,0.999,0.989,0.981,0.974,0.968,0.96,0.954,0.951,0.945,0.942,0.941,0.94,0.938,0.935,0.934,0.933,0.931,0.93,0.93,0.93,0.928,0.927,0.926,0.924,0.924,0.923,0.921,0.92,0.919,0.917,0.916,0.915,0.915,0.913,0.913,0.913,0.913,0.912,0.912,0.912,0.912,0.911,0.911,0.911,0.909,0.909,0.909,0.908,0.908,0.908,0.908,0.908,0.908,0.909,0.908,0.909,0.909,0.909,0.909,0.909,0.911,0.912,0.912,0.912,0.912,0.912,0.913,0.912,0.912,0.911,0.909,0.908,0.908,0.908,0.908,0.908,0.908,0.909,0.909,0.909,0.909,0.909,0.909,0.908,0.908,0.907,0.907,0.907,0.907,0.907,0.907,0.907,0.908,0.908,0.909,0.909,0.909,0.909,0.909,0.908,0.907,0.907,0.905,0.905,0.905,0.904,0.905,0.905,0.905,0.905,0.907,0.905,0.904,0.905,0.905,0.905,0.907,0.908,0.908,0.909,0.911,0.911,0.911,0.909,0.909,0.909,0.909,0.909,0.909,0.909,0.911,0.911,0.911,0.911,0.911,0.911,0.911,0.911,0.911,0.912,0.912,0.911,0.911,0.911,0.912,0.912,0.911,0.911,0.911,0.911,0.911,0.911,0.912,0.912,0.912,0.912,0.912,0.911,0.911,0.911,0.911,0.911,0.911,0.911,0.911,0.911,0.911,0.909,0.909,0.908,0.908,0.907,0.907,0.907,0.907,0.908,0.909,0.908,0.908,0.907,0.908,0.909,0,0,0,0,0,0,0,0.734,0.732,0.732,0.732,0.731,0.729,0.728,0.728,0.726,0.725,0.723,0.723,0.721,0.72,0.719,0.718,0.717,0.716,0.715,0.714,0.713,0.713,0.713,0.712,0.711,0.711,0.711,0.71,0.71,0.709,0.709,0.708,0.708,0.708,0.708,0.709,0.708,0.709,0.708,0.709,0.709,0.71,0.711,0.713,0.714,0.716,0.718,0.721,0.723,0.724,0.726,0.728,0.728,0.729,0.73,0.731,0.73,0.73,0.729,0.728,0.726,0.724,0.722,0.721,0.719,0.718,0.716,0.715,0.714,0.713,0.713,0.712,0.712,0.712,0.712,0.712,0.713,0.713,0.714,0.715,0.717,0.718,0.72,0.722,0.722,0.723,0.724,0.724,0.723,0.723,0.722,0.722,0.72,0.719,0.718,0.716,0.715,0.714,0.713,0.713,0.712,0.712,0.713,0.713,0.716,0.718,0.721,0.724,0.727,0.729,0.732,0.734,0.735,0.735,0.734,0.733,0.731,0.728,0.726,0.723,0.719,0.717,0.714,0.712,0.709,0.709,0.708,0.709,0.709,0.711,0.712,0.713,0.714,0.716,0.718,0.72,0.722,0.723,0.724,0.726,0.727,0.728,0.727,0.726,0,0,0,0,0
0.913,0.912,0.912,0.912,0.912,0.913,0.913,0.913,0.913,0.913,0.912,0.912,0.912,0.912,0.911,0.911,0.911,0.911,0.912,0.913,0.913,0.915,0.919,0.921,0.928,0.934,0.944,0.953,0.964,0.977,0.986,0.996,0.997,1,1.004,1.005,0,0,0,0,0,0,0,0,0,0,0,0,0,0,0,0,0,0,0,0,0,0,0,0,0,0,0,0,0,0,0,0,0,0,0,0,0,0,0,0,0,0,0,0,0,0,0,0,0,0,0,0,0,0,0,0,0,0,0,0,0,0,0,0,0,0,0,0,0,0,0,0,0,0,0,0,0,0,0,0,0,0,0,0,0,0,0,0,0,0,0,0,0,0,0,0,0,0,0,0,0,0,0,1.029,1.027,1.025,1.022,1.018,1.017,1.013,1.01,1.005,1.002,0.996,0.989,0.986,0.981,0.977,0.974,0.971,0.968,0.966,0.964,0.963,0.964,0.964,0.964,0.966,0.966,0.968,0.971,0.971,0.974,0.975,0.975,0.978,0.978,0.978,0.978,0.98,0.98,0.981,0.981,0.984,0.986,0.988,0.989,0.991,0.992,0.992,0.994,0.996,0.997,0.999,1,1.002,1.005,1.01,1.013,1.018,1.022,1.025,1.03,1.035,1.039,1.039,1.037,1.034,1.03,1.027,1.023,1.018,1.015,1.012,1.01,1.008,1.01,1.01,1.01,1.01,1.008,1.008,1.007,1.005,1.002,0.994,0.983,0.971,0.963,0.956,0.948,0.941,0.938,0.933,0.931,0.93,0.93,0.928,0.926,0.926,0.924,0.923,0.923,0.923,0.923,0.921,0.921,0.92,0.92,0.919,0.917,0.916,0.916,0.915,0.913,0.912,0.911,0.909,0.909,0.909,0.909,0.908,0.907,0.907,0.907,0.907,0.905,0.907,0.907,0.907,0.905,0.905,0.904,0.904,0.904,0.905,0.905,0.905,0.905,0.905,0.907,0.907,0.907,0.907,0.907,0.907,0.908,0.908,0.908,0.909,0.909,0.909,0.909,0.908,0.907,0.905,0.904,0.904,0.904,0.904,0.904,0.904,0.905,0.905,0.905,0.905,0.905,0.905,0.904,0.904,0.903,0.903,0.903,0.903,0.901,0.903,0.903,0.903,0.904,0.905,0.905,0.907,0.905,0.905,0.904,0.904,0.903,0.903,0.901,0.901,0.901,0.901,0.901,0.901,0.901,0.901,0.901,0.9,0.9,0.9,0.901,0.903,0.903,0.904,0.904,0.905,0.905,0.905,0.905,0.905,0.904,0.904,0.904,0.904,0.904,0.905,0.905,0.907,0.905,0.905,0.905,0.905,0.905,0.907,0.907,0.907,0.907,0.905,0.905,0.905,0.905,0.905,0.905,0.905,0.905,0.905,0.905,0.907,0.907,0.907,0.905,0.905,0.905,0.904,0.904,0.905,0.904,0.905,0.905,0.904,0.904,0.905,0.904,0.904,0.904,0.904,0.903,0.901,0.901,0.903,0.903,0.903,0.903,0.903,0.903,0,0,0,0,0,0,0,0,0,0.732,0.731,0.731,0.731,0.73,0.729,0.728,0.727,0.726,0.724,0.723,0.722,0.72,0.719,0.718,0.717,0.715,0.714,0.713,0.713,0.712,0.711,0.711,0.71,0.709,0.709,0.708,0.708,0.708,0.707,0.707,0.707,0.706,0.706,0.706,0.707,0.706,0.706,0.706,0.706,0.707,0.708,0.708,0.71,0.711,0.713,0.714,0.717,0.718,0.72,0.723,0.724,0.726,0.728,0.728,0.729,0.729,0.729,0.728,0.727,0.724,0.722,0.719,0.718,0.716,0.714,0.713,0.71,0.71,0.708,0.708,0.708,0.707,0.707,0.707,0.707,0.708,0.708,0.709,0.711,0.712,0.713,0.714,0.716,0.716,0.718,0.718,0.718,0.718,0.718,0.718,0.717,0.716,0.715,0.714,0.713,0.711,0.71,0.709,0.708,0.708,0.708,0.709,0.71,0.713,0.716,0.719,0.723,0.726,0.73,0.733,0.735,0.735,0.735,0.734,0.732,0.73,0.728,0.725,0.723,0.718,0.715,0.713,0.709,0.707,0.706,0.705,0.705,0.706,0.707,0.708,0.71,0.711,0.713,0.715,0.717,0.718,0.719,0.72,0.721,0.721,0.721,0.72,0.718,0,0,0,0,0
