1.604,1.608,1.617,1.621,1.625,1.634,1.638,1.642,1.647,1.656,1.66,1.665,1.674,1.678,1.687,1.692,1.706,1.715,1.73,1.744,1.754,1.769,1.784,1.795,1.805,1.816,1.821,1.832,1.843,1.859,1.871,1.888,1.911,1.929,1.953,1.972,1.991,2.01,2.03,2.044,2.057,2.071,2.085,2.106,2.121,2.128,2.135,2.143,2.143,2.15,2.158,2.158,2.15,2.15,2.15,2.158,2.158,2.15,2.158,2.158,2.165,2.173,2.18,2.196,0,0,0,2.244,0,2.268,2.276,2.31,2.337,2.372,2.438,2.507,2.559,0,2.728,2.84,2.963,3.065,3.143,3.259,3.384,3.498,3.579,3.6,3.621,3.6,3.621,3.6,3.6,3.621,3.621,3.6,3.6,3.621,3.621,3.621,3.642,3.642,3.664,3.686,3.686,3.708,3.73,3.753,3.753,3.776,3.776,3.776,3.799,3.799,3.776,3.776,3.776,3.776,3.753,3.753,3.753,3.73,3.73,3.73,3.708,3.708,3.708,3.686,3.686,3.686,3.686,3.686,3.686,3.686,3.686,3.686,3.686,3.708,3.708,3.708,3.708,3.708,3.708,3.73,3.73,3.73,3.73,3.753,3.73,3.73,3.73,3.708,3.708,3.708,3.686,3.686,3.686,3.686,3.664,3.664,3.664,3.664,3.664,3.664,3.686,3.686,3.708,3.708,3.73,3.73,3.753,3.753,3.753,3.753,3.753,3.753,3.753,3.753,3.753,3.73,3.73,3.708,3.708,3.708,3.686,3.664,3.664,3.642,3.642,3.621,3.621,3.621,3.6,3.6,3.6,3.6,3.621,3.621,3.621,3.621,3.642,3.642,3.664,3.664,3.686,3.708,3.73,3.73,3.73,3.73,3.753,3.753,3.776,3.776,3.776,3.776,3.776,3.776,3.776,3.776,3.776,3.776,3.776,3.776,3.776,3.799,3.799,3.799,3.799,3.799,3.822,3.822,3.822,3.822,3.822,3.822,3.822,3.799,3.799,3.776,3.776,3.753,3.753,3.753,3.73,3.73,3.73,3.73,3.73,3.73,3.73,3.73,3.73,3.753,3.753,3.776,3.776,3.776,3.776,3.776,3.776,3.776,3.776,3.776,3.753,3.753,3.753,3.753,3.753,3.753,3.753,3.776,3.776,3.776,3.776,3.776,3.776,3.799,3.799,3.799,3.799,3.822,3.822,3.846,3.846,3.846,3.846,3.846,3.87,3.87,3.87,3.894,3.894,3.894,3.87,3.87,3.87,3.846,3.822,3.799,3.776,3.753,3.73,3.686,3.664,3.642,3.621,3.559,3.518,3.479,3.44,3.365,3.329,3.311,3.259,3.225,3.208,3.175,3.159,3.143,3.112,3.096,3.065,3.05,3.035,3.006,2.991,2.963,2.921,2.88,2.827,2.789,2.752,2.728,2.704,2.681,2.658,2.646,2.635,2.613,2.613,2.602,2.602,2.58,2.58,2.58,2.569,2.569,2.569,2.569,2.559,2.559,2.559,2.569,2.559,2.559,2.559,2.548,2.548,2.538,2.527,2.507,2.487,2.477,2.467,2.447,2.438,2.428,2.419,2.4,2.382,2.372,2.363,2.345,2.337,2.328,2.319,2.319,2.31,2.302,2.293,2.285,2.268,2.252,2.235,2.219,2.196,2.18,2.165,2.143,2.135,2.121,2.106,2.099,2.092,2.078,2.057,2.037,2.024,2.01,1.997,1.991,1.978,1.972,1.966,1.96,1.96,1.96,1.96,1.953,1.953,1.941,1.929,1.923,1.917,1.905,1.894,1.882,1.871,1.865,1.854,1.854,1.827,1.8,1.769,0,1.711,1.683,1.656,1.634,1.629,1.621,1.617,1.617,1.613,1.604,1.6,1.592,1.584,1.58,1.568,1.56,1.552,1.548,1.54,1.536,1.533,1.525,1.521,1.514,1.507,1.496,1.488,1.481,1.471,1.464,1.46,1.454,1.447,1.447,1.443,1.437,1.433,1.43,1.423,1.42,1.417,1.41,1.407,1.401,1.398,1.391,1.388,1.385,1.379,1.376,1.37,1.367,1.364,1.361,1.355,1.349,1.346,1.34,1.337,1.332,1.323,1.317,1.312,1.306,1.301,1.293,1.285,1.277,1.269,1.261,1.256,1.248,1.243,1.238,1.233,1.229,1.226,1.224,1.221,1.219,1.214,1.214,1.212,1.212,1.209,1.207,1.205,1.202,1.2,1.198,1.195,1.193,1.191,1.186,1.184,1.179,1.173,1.164,1.155,1.147,1.136,1.126,1.116,1.11
1.608,1.613,1.617,1.621,1.625,1.634,1.638,1.642,1.647,1.656,1.66,1.665,1.669,1.674,1.683,1.692,1.701,1.711,1.725,1.739,1.749,1.764,1.779,1.795,1.805,1.816,1.827,1.837,1.848,1.865,1.876,1.894,1.911,1.935,1.953,1.972,1.985,2.004,2.024,2.044,2.057,2.071,2.092,2.106,2.128,2.135,2.143,2.15,2.158,2.165,2.165,2.165,2.165,2.165,2.165,2.18,2.18,2.173,2.173,2.173,2.188,2.196,2.204,2.211,2.219,2.235,2.244,2.252,2.268,2.276,2.293,2.319,2.354,2.391,2.457,2.517,2.569,2.613,2.74,2.867,2.977,3.081,3.175,3.294,3.402,3.538,3.6,3.621,3.621,3.621,3.621,3.621,3.621,3.621,3.621,3.621,3.621,3.621,3.621,3.642,3.642,3.664,3.686,3.686,3.708,3.73,3.753,3.753,3.776,3.776,3.776,3.799,3.799,3.799,3.799,3.799,3.799,3.776,3.776,3.776,3.753,3.753,3.73,3.73,3.73,3.708,3.708,3.708,3.708,3.708,3.708,3.708,3.708,3.708,3.708,3.708,3.708,3.708,3.73,3.73,3.73,3.73,3.73,3.753,3.753,3.753,3.753,3.753,3.753,3.753,3.753,3.753,3.753,3.73,3.73,3.708,3.708,3.708,3.686,3.686,3.686,3.686,3.686,3.686,3.708,3.708,3.73,3.73,3.753,3.753,3.753,3.776,3.776,3.776,3.776,3.776,3.776,3.776,3.753,3.753,3.753,3.73,3.73,3.708,3.708,3.686,3.686,3.664,3.664,3.642,3.642,3.642,3.621,3.621,3.621,3.621,3.621,3.642,3.642,3.642,3.664,3.686,3.686,3.708,3.73,3.73,3.753,3.753,3.776,3.776,3.776,3.776,3.776,3.776,3.799,3.799,3.776,3.776,3.776,3.776,3.776,3.776,3.776,3.799,3.799,3.799,3.799,3.822,3.822,3.822,3.846,3.846,3.846,3.846,3.846,3.846,3.822,3.822,3.799,3.799,3.776,3.776,3.776,3.753,3.753,3.753,3.73,3.73,3.753,3.753,3.753,3.753,3.776,3.776,3.776,3.799,3.799,3.799,3.799,3.776,3.776,3.776,3.776,3.776,3.776,3.776,3.776,3.776,3.776,3.776,3.776,3.776,3.799,3.799,3.799,3.799,3.799,3.799,3.799,3.822,3.822,3.822,3.846,3.846,3.846,3.87,3.87,3.87,3.894,3.894,3.894,3.894,3.894,3.894,3.894,3.87,3.87,3.846,3.822,3.799,3.799,3.753,3.73,3.708,3.664,3.621,3.6,3.559,3.518,3.459,3.421,3.365,3.329,3.311,3.259,3.242,3.192,3.175,3.175,3.159,3.127,3.096,3.081,3.065,3.035,3.006,2.991,2.949,2.935,2.88,2.827,2.789,2.752,2.74,2.716,2.692,2.669,2.658,2.635,2.624,2.613,2.602,2.591,2.58,2.569,2.569,2.569,2.569,2.569,2.569,2.559,2.559,2.559,2.569,2.569,2.559,2.559,2.548,2.538,2.527,2.517,2.507,2.487,2.477,2.457,2.447,2.438,2.428,2.409,2.4,2.382,2.372,2.363,2.345,2.337,2.328,2.319,2.319,2.31,2.302,2.293,2.285,2.268,2.252,2.227,2.211,2.196,2.18,2.165,2.143,2.128,2.113,2.099,2.092,2.078,2.064,2.044,2.03,2.017,2.004,1.991,1.985,1.978,1.966,1.966,1.96,1.96,1.96,1.96,1.953,1.953,1.947,1.935,1.929,1.917,1.911,1.894,1.888,1.876,1.865,1.859,1.854,1.832,1.8,1.769,0,1.711,1.687,1.66,1.638,1.629,1.621,1.621,1.617,1.613,1.604,1.6,1.592,1.588,1.58,1.568,1.56,1.552,1.548,1.54,1.54,1.533,1.525,1.521,1.514,1.503,1.496,1.485,1.478,1.471,1.464,1.457,1.45,1.447,1.443,1.44,1.437,1.433,1.427,1.423,1.417,1.414,1.41,1.404,1.401,1.395,1.388,1.385,1.379,1.376,1.37,1.367,1.364,1.358,1.355,1.352,1.349,1.346,1.34,1.334,1.332,1.326,1.32,1.315,1.309,1.304,1.295,1.287,1.282,1.274,1.266,1.259,1.251,1.246,1.241,1.233,1.231,1.226,1.224,1.221,1.219,1.217,1.214,1.212,1.212,1.209,1.207,1.205,1.202,1.2,1.198,1.195,1.193,1.191,1.188,1.184,1.182,1.175,1.166,1.155,1.145,1.134,1.124,1.114,1.104
1.608,1.613,1.621,1.621,1.629,1.634,1.638,1.642,1.651,1.656,1.66,1.665,1.669,1.678,1.683,1.687,1.696,1.711,1.72,1.734,1.749,1.759,1.779,1.795,1.805,1.816,1.827,1.837,1.848,1.865,1.876,1.888,1.911,1.929,1.947,1.966,1.978,1.997,2.017,2.037,2.057,2.071,2.092,2.113,2.128,2.143,2.143,2.158,2.165,2.173,2.18,2.18,2.18,2.18,2.18,2.188,2.196,2.196,2.196,2.196,2.204,2.219,2.227,2.235,2.244,2.252,2.268,2.276,2.285,2.293,2.31,2.337,2.363,2.4,2.467,2.527,2.58,2.624,2.74,2.88,2.991,3.096,3.192,3.311,3.44,3.559,3.621,3.642,3.642,3.642,3.642,3.642,3.642,3.642,3.642,3.621,3.621,3.642,3.642,3.642,3.664,3.664,3.686,3.708,3.73,3.73,3.753,3.776,3.776,3.776,3.799,3.799,3.799,3.799,3.799,3.799,3.776,3.776,3.776,3.776,3.753,3.753,3.753,3.73,3.73,3.73,3.73,3.73,3.73,3.708,3.708,3.708,3.708,3.708,3.708,3.708,3.73,3.73,3.73,3.753,3.753,3.753,3.753,3.776,3.776,3.776,3.776,3.776,3.776,3.776,3.776,3.776,3.753,3.753,3.753,3.73,3.73,3.73,3.73,3.708,3.708,3.708,3.73,3.73,3.73,3.73,3.753,3.753,3.753,3.776,3.776,3.799,3.799,3.799,3.799,3.799,3.799,3.776,3.776,3.776,3.753,3.753,3.73,3.73,3.708,3.708,3.686,3.686,3.686,3.664,3.664,3.664,3.664,3.664,3.664,3.664,3.664,3.664,3.686,3.686,3.686,3.708,3.73,3.73,3.753,3.776,3.776,3.776,3.799,3.799,3.799,3.799,3.799,3.799,3.799,3.799,3.799,3.799,3.799,3.799,3.799,3.799,3.799,3.799,3.799,3.822,3.822,3.822,3.822,3.846,3.846,3.87,3.87,3.87,3.87,3.846,3.846,3.822,3.822,3.799,3.799,3.799,3.776,3.776,3.776,3.753,3.753,3.753,3.753,3.753,3.776,3.776,3.799,3.799,3.822,3.822,3.822,3.822,3.799,3.799,3.799,3.799,3.799,3.799,3.799,3.799,3.799,3.799,3.799,3.799,3.799,3.799,3.799,3.799,3.799,3.822,3.822,3.822,3.822,3.822,3.846,3.846,3.846,3.87,3.87,3.87,3.894,3.894,3.894,3.894,3.894,3.894,3.894,3.894,3.894,3.87,3.87,3.846,3.822,3.822,3.799,3.753,3.753,3.708,3.664,3.621,3.6,3.538,3.518,3.459,3.421,3.365,3.347,3.311,3.259,3.242,3.192,3.192,3.159,3.143,3.127,3.096,3.081,3.065,3.035,3.006,2.977,2.963,2.921,2.893,2.84,2.802,2.764,2.74,2.728,2.704,2.681,2.658,2.635,2.624,2.613,2.602,2.591,2.58,2.569,2.569,2.569,2.569,2.569,2.559,2.559,2.559,2.569,2.569,2.569,2.559,2.559,2.548,2.538,2.527,2.517,2.497,2.477,2.467,2.457,2.447,2.438,2.428,2.409,2.4,2.382,2.372,2.363,2.345,2.337,2.328,2.319,2.31,2.31,2.302,2.302,2.285,2.268,2.252,2.227,2.211,2.196,2.173,2.158,2.135,2.121,2.106,2.099,2.085,2.071,2.057,2.037,2.024,2.01,1.997,1.991,1.985,1.972,1.966,1.966,1.96,1.96,1.953,1.96,1.96,1.96,1.947,1.941,1.929,1.923,1.911,1.899,1.888,1.876,1.871,1.859,1.859,1.837,1.805,1.774,0,1.715,1.687,1.66,1.638,1.634,1.625,1.621,1.621,1.617,1.608,1.6,1.596,1.588,1.58,1.572,1.564,1.556,1.548,1.544,1.54,1.536,1.529,1.521,1.514,1.503,1.496,1.485,1.478,1.467,1.46,1.454,1.447,1.443,1.443,1.437,1.437,1.43,1.427,1.42,1.417,1.414,1.407,1.401,1.398,1.391,1.385,1.379,1.376,1.373,1.367,1.364,1.361,1.358,1.352,1.349,1.349,1.343,1.337,1.334,1.329,1.326,1.32,1.317,1.312,1.304,1.298,1.293,1.285,1.277,1.269,1.264,1.256,1.248,1.243,1.238,1.233,1.229,1.226,1.224,1.221,1.217,1.214,1.214,1.212,1.209,1.207,1.205,1.202,1.2,1.198,1.195,1.193,1.191,1.188,1.186,1.182,1.175,1.166,1.155,1.145,1.134,1.124,1.112,1.102
1.608,1.617,1.621,1.621,1.629,1.634,1.638,1.642,1.651,1.656,1.66,1.665,1.669,1.674,1.678,1.687,1.696,1.706,1.72,1.734,1.744,1.759,1.779,1.79,1.805,1.816,1.827,1.843,1.854,1.865,1.876,1.888,1.905,1.929,1.941,1.953,1.972,1.991,2.017,2.037,2.05,2.071,2.092,2.113,2.135,2.15,2.15,2.158,2.173,2.18,2.18,2.188,2.188,2.196,2.204,2.211,2.211,2.211,2.211,2.219,2.235,2.244,2.252,2.268,2.276,2.285,2.302,2.31,2.319,0,0,0,0,2.419,2.487,2.538,2.591,2.635,2.764,2.893,3.006,3.112,3.208,3.329,3.459,3.579,3.642,3.664,3.664,3.664,3.642,3.664,3.664,3.642,3.642,3.642,3.642,3.642,3.642,3.642,3.664,3.664,3.686,3.708,3.73,3.753,3.753,3.776,3.776,3.776,3.799,3.799,3.799,3.799,3.799,3.799,3.776,3.776,3.776,3.776,3.776,3.753,3.753,3.753,3.753,3.753,3.73,3.73,3.73,3.73,3.73,3.73,3.73,3.73,3.73,3.73,3.73,3.753,3.753,3.753,3.776,3.776,3.776,3.776,3.799,3.799,3.799,3.799,3.799,3.799,3.776,3.776,3.776,3.776,3.753,3.753,3.753,3.73,3.73,3.73,3.73,3.73,3.73,3.73,3.753,3.753,3.776,3.776,3.799,3.799,3.799,3.822,3.822,3.822,3.822,3.822,3.822,3.799,3.799,3.799,3.776,3.776,3.753,3.753,3.73,3.73,3.708,3.708,3.686,3.686,3.686,3.686,3.686,3.686,3.686,3.686,3.686,3.708,3.708,3.73,3.73,3.753,3.753,3.776,3.776,3.799,3.799,3.822,3.822,3.822,3.822,3.822,3.822,3.822,3.822,3.822,3.822,3.822,3.822,3.799,3.799,3.799,3.799,3.822,3.822,3.822,3.822,3.822,3.846,3.846,3.87,3.87,3.87,3.87,3.87,3.87,3.846,3.846,3.822,3.822,3.799,3.799,3.799,3.776,3.776,3.776,3.776,3.776,3.776,3.776,3.799,3.799,3.822,3.822,3.822,3.846,3.846,3.846,3.822,3.822,3.822,3.822,3.799,3.799,3.799,3.799,3.799,3.799,3.799,3.799,3.799,3.799,3.822,3.822,3.822,3.822,3.822,3.846,3.846,3.846,3.846,3.846,3.87,3.87,3.894,3.894,3.894,3.894,3.919,3.919,3.919,3.919,3.894,3.919,3.894,3.87,3.87,3.846,3.822,3.822,3.776,3.753,3.73,3.686,3.642,3.6,3.579,3.518,3.498,3.44,3.421,3.365,3.347,3.329,3.259,3.225,3.192,3.175,3.159,3.143,3.112,3.081,3.065,3.05,3.035,3.006,2.977,2.949,2.921,2.88,2.84,2.802,2.777,2.752,2.74,2.716,2.681,2.669,2.646,2.624,2.613,2.602,2.58,2.569,2.569,2.559,2.569,2.569,2.569,2.559,2.559,2.569,2.569,2.569,2.569,2.569,2.559,2.548,2.538,2.517,2.507,2.497,2.477,2.467,2.457,2.447,2.438,2.428,2.409,2.4,2.382,2.372,2.363,2.345,2.337,2.328,2.319,2.319,2.31,2.302,2.302,2.285,2.268,2.252,2.227,2.211,2.188,2.173,2.158,2.135,2.121,2.106,2.092,2.078,2.064,2.05,2.037,2.024,2.01,1.997,1.991,1.978,1.972,1.966,1.966,1.96,1.96,1.953,1.96,1.96,1.953,1.947,1.941,1.935,1.923,1.917,1.905,1.888,1.882,1.871,1.865,1.859,1.837,1.805,1.774,0,1.715,1.687,1.66,1.638,1.634,1.625,1.621,1.621,1.617,1.613,1.604,1.596,1.588,1.58,1.576,1.564,1.556,1.548,1.544,1.54,1.536,1.529,1.521,1.514,1.507,1.496,1.485,1.478,1.467,1.46,1.454,1.447,1.443,1.44,1.44,1.437,1.43,1.427,1.42,1.417,1.414,1.407,1.398,1.395,1.388,1.382,1.379,1.373,1.367,1.364,1.358,1.355,1.355,1.352,1.349,1.346,1.34,1.337,1.334,1.329,1.326,1.32,1.317,1.312,1.306,1.301,1.295,1.287,1.282,1.274,1.266,1.259,1.253,1.246,1.241,1.236,1.231,1.229,1.226,1.221,1.219,1.217,1.214,1.212,1.209,1.207,1.205,1.202,1.2,1.198,1.195,1.195,1.191,1.188,1.186,1.184,1.177,1.168,1.157,1.145,1.134,1.122,1.11,1.102
1.613,1.617,1.621,1.625,1.629,1.634,1.638,1.647,1.651,1.656,1.665,1.665,1.674,1.678,1.683,1.687,1.696,1.711,1.72,1.734,1.749,1.764,1.779,1.795,1.811,1.821,1.832,1.843,1.854,1.865,1.876,1.888,1.905,1.923,1.935,1.947,1.96,1.978,2.004,2.024,2.044,2.064,2.085,2.106,2.128,2.143,2.15,2.158,2.173,2.18,2.188,2.196,2.204,2.211,2.227,2.235,2.235,2.244,2.244,2.252,2.26,2.276,2.285,2.293,2.31,2.319,2.328,2.337,2.345,2.354,0,0,0,2.457,2.507,2.569,2.602,2.646,2.777,2.907,3.021,3.127,3.225,3.347,3.479,3.621,3.664,3.686,3.664,3.686,3.664,3.664,3.664,3.664,3.664,3.664,3.642,3.642,3.642,3.664,3.664,3.686,3.686,3.708,3.73,3.753,3.753,3.776,3.776,3.776,3.776,3.799,3.799,3.799,3.799,3.799,3.799,3.776,3.776,3.776,3.776,3.776,3.753,3.753,3.753,3.753,3.753,3.753,3.753,3.753,3.753,3.753,3.753,3.753,3.753,3.753,3.753,3.776,3.776,3.776,3.799,3.799,3.799,3.799,3.799,3.799,3.799,3.822,3.822,3.799,3.799,3.799,3.799,3.776,3.776,3.776,3.753,3.753,3.753,3.753,3.753,3.753,3.753,3.753,3.753,3.776,3.776,3.799,3.799,3.822,3.822,3.822,3.846,3.846,3.846,3.846,3.846,3.822,3.822,3.822,3.799,3.799,3.776,3.776,3.753,3.753,3.73,3.73,3.708,3.708,3.708,3.686,3.686,3.686,3.686,3.708,3.708,3.73,3.73,3.753,3.753,3.776,3.799,3.799,3.822,3.822,3.846,3.846,3.846,3.846,3.846,3.846,3.846,3.846,3.846,3.822,3.822,3.822,3.822,3.822,3.822,3.822,3.822,3.822,3.822,3.822,3.846,3.846,3.87,3.87,3.87,3.87,3.87,3.87,3.87,3.87,3.87,3.846,3.846,3.822,3.822,3.799,3.799,3.799,3.799,3.799,3.799,3.799,3.799,3.799,3.822,3.822,3.846,3.846,3.846,3.846,3.846,3.846,3.846,3.846,3.846,3.822,3.822,3.822,3.822,3.822,3.822,3.799,3.799,3.822,3.822,3.822,3.822,3.822,3.822,3.822,3.846,3.846,3.846,3.846,3.846,3.87,3.87,3.894,3.894,3.894,3.919,3.919,3.919,3.944,3.919,3.919,3.919,3.894,3.894,3.87,3.87,3.846,3.846,3.799,3.776,3.753,3.708,3.686,3.621,3.6,3.559,3.518,3.479,3.44,3.402,3.365,3.329,3.311,3.242,3.208,3.192,3.175,3.175,3.159,3.112,3.096,3.065,3.05,3.021,2.991,2.977,2.949,2.921,2.88,2.84,2.815,2.777,2.764,2.752,2.716,2.681,2.669,2.646,2.624,2.602,0,2.58,2.569,2.559,2.559,2.559,2.559,2.559,2.559,2.559,2.569,2.569,2.58,2.569,2.569,2.559,2.548,2.538,2.517,2.507,2.487,2.467,2.457,2.457,2.447,2.428,2.419,2.409,2.4,2.391,2.372,2.363,2.354,2.337,2.328,2.319,2.319,2.31,2.302,2.302,2.285,2.268,2.252,2.227,2.204,2.188,2.165,2.15,2.128,2.113,2.099,2.085,2.071,2.057,2.044,2.03,2.017,2.01,1.997,1.985,1.978,1.972,1.972,1.966,1.96,1.96,1.953,1.953,1.96,1.953,1.947,1.941,1.935,1.923,1.917,1.905,1.894,1.882,1.871,1.865,1.859,1.843,1.805,1.774,0,1.715,1.687,1.66,1.642,1.634,1.625,1.621,1.621,1.617,1.613,1.604,1.596,1.588,1.58,1.576,1.564,1.556,1.548,1.544,1.544,1.536,1.529,1.525,1.514,1.507,1.496,1.485,1.478,1.467,1.46,1.454,1.447,1.443,1.44,1.437,1.437,1.43,1.427,1.42,1.417,1.414,1.407,1.398,1.395,1.388,1.382,1.376,1.37,1.367,1.361,1.358,1.355,1.352,1.349,1.346,1.343,1.34,1.337,1.334,1.329,1.326,1.32,1.317,1.312,1.306,1.301,1.295,1.29,1.282,1.274,1.266,1.261,1.253,1.248,1.243,1.238,1.233,1.231,1.226,1.224,1.221,1.219,1.214,1.212,1.209,1.207,1.205,1.202,1.2,1.198,1.198,1.195,1.193,1.191,1.188,1.186,1.179,1.168,1.16,1.147,1.134,1.124,1.112,1.102
1.613,1.617,1.621,1.625,1.629,1.634,1.642,1.647,1.656,1.66,1.665,1.669,1.678,1.683,1.687,1.692,1.701,1.711,1.725,1.734,1.754,1.769,1.784,1.8,1.816,1.827,1.837,1.848,1.854,1.865,1.876,1.882,1.905,1.917,1.929,1.941,1.953,1.972,1.997,2.017,2.037,2.057,2.078,2.106,2.121,2.143,2.15,2.158,2.173,2.188,2.196,2.211,2.219,2.227,2.235,2.252,2.26,2.268,2.285,2.293,2.302,2.319,2.328,2.337,2.337,2.354,2.363,2.382,2.4,2.4,0,0,0,2.487,2.538,2.58,2.624,2.646,2.789,2.907,3.035,3.127,3.242,3.365,3.479,3.642,3.686,3.686,3.686,3.686,3.686,3.686,3.686,3.686,3.664,3.664,3.664,3.664,3.664,3.664,3.686,3.686,3.708,3.708,3.73,3.753,3.753,3.776,3.776,3.776,3.799,3.799,3.799,3.799,3.799,3.799,3.799,3.776,3.776,3.776,3.776,3.776,3.776,3.776,3.776,3.776,3.776,3.776,3.776,3.776,3.776,3.776,3.776,3.776,3.776,3.776,3.776,3.799,3.799,3.799,3.799,3.799,3.822,3.822,3.822,3.822,3.822,3.822,3.822,3.822,3.822,3.822,3.799,3.799,3.799,3.776,3.776,3.753,3.753,3.753,3.753,3.753,3.776,3.776,3.776,3.799,3.799,3.799,3.822,3.822,3.822,3.846,3.846,3.846,3.846,3.846,3.846,3.846,3.846,3.846,3.822,3.822,3.799,3.776,3.776,3.753,3.753,3.753,3.73,3.73,3.73,3.73,3.73,3.73,3.73,3.73,3.73,3.753,3.776,3.776,3.799,3.799,3.822,3.846,3.846,3.87,3.87,3.87,3.87,3.87,3.87,3.87,3.87,3.87,3.87,3.846,3.846,3.822,3.822,3.822,3.822,3.822,3.822,3.822,3.822,3.846,3.846,3.87,3.87,3.87,3.87,3.894,3.894,3.894,3.894,3.87,3.87,3.87,3.846,3.846,3.822,3.822,3.822,3.799,3.799,3.799,3.799,3.799,3.799,3.822,3.822,3.846,3.846,3.846,3.87,3.87,3.87,3.87,3.87,3.87,3.87,3.846,3.846,3.846,3.846,3.846,3.822,3.822,3.822,3.822,3.822,3.822,3.822,3.846,3.846,3.846,3.846,3.846,3.846,3.87,3.87,3.87,3.894,3.894,3.894,3.919,3.919,3.944,3.944,3.944,3.944,3.919,3.919,3.894,3.894,3.87,3.87,3.846,3.822,3.799,3.776,3.73,3.708,3.642,3.621,3.559,3.518,3.479,3.44,3.402,3.384,3.347,3.329,3.294,3.242,3.192,3.175,3.175,3.175,3.159,3.127,3.081,3.065,3.05,3.021,2.991,2.963,2.949,2.907,2.88,2.84,2.815,2.789,2.777,2.752,2.716,2.692,2.669,2.646,2.624,2.602,0,2.569,2.559,2.548,2.548,2.559,2.559,2.559,2.559,2.569,2.569,2.569,2.58,2.569,2.569,2.559,2.548,2.527,2.517,2.497,2.487,2.467,2.457,2.447,2.438,2.428,2.419,2.409,2.4,2.391,2.382,2.372,2.354,2.345,2.337,2.328,2.319,2.319,2.31,2.302,2.285,2.268,2.252,2.227,2.204,2.18,2.165,2.143,2.121,2.106,2.092,2.078,2.064,2.057,2.044,2.03,2.017,2.01,1.997,1.985,1.978,1.978,1.972,1.966,1.96,1.96,1.953,1.953,1.96,1.953,1.947,1.941,1.935,1.923,1.917,1.905,1.894,1.882,1.871,1.865,1.854,1.843,1.805,1.774,1.744,1.711,1.687,1.66,1.642,1.629,1.625,1.621,1.617,1.617,1.608,1.604,1.596,1.588,1.58,1.572,1.564,1.556,1.548,1.544,1.544,1.536,1.533,1.525,1.518,1.507,1.496,1.485,1.478,1.467,1.46,1.454,1.447,1.443,1.443,1.44,1.437,1.433,1.427,1.423,1.417,1.414,1.407,1.401,1.395,1.388,1.382,1.376,1.37,1.367,1.361,1.355,1.352,1.352,1.349,1.346,1.343,1.34,1.337,1.332,1.329,1.326,1.32,1.315,1.312,1.306,1.301,1.295,1.29,1.282,1.277,1.269,1.264,1.256,1.251,1.246,1.243,1.238,1.233,1.229,1.226,1.224,1.219,1.217,1.214,1.212,1.209,1.207,1.202,1.2,1.198,1.195,1.195,1.193,1.191,1.188,1.186,1.179,1.171,1.162,1.149,0,1.124,1.114,1.102
1.608,1.613,1.617,1.625,1.629,1.634,1.642,1.647,1.656,1.665,1.669,1.674,1.678,1.683,1.687,1.696,1.706,1.715,1.725,1.744,1.759,1.774,1.79,1.805,1.816,1.827,1.837,1.848,1.859,1.865,1.876,1.882,1.899,1.911,1.923,1.935,1.947,1.966,1.991,2.01,2.03,2.05,2.071,2.092,2.113,2.128,2.143,2.158,2.173,2.18,2.196,2.204,2.219,2.235,2.244,2.26,2.268,2.285,2.285,2.302,2.319,2.337,2.354,2.363,2.363,2.382,2.391,2.409,2.438,2.438,2.457,2.477,2.497,2.527,2.569,2.602,2.635,2.669,2.789,2.907,3.021,3.127,3.242,3.365,3.498,3.642,3.708,3.708,3.708,3.708,3.708,3.708,3.708,3.686,3.686,3.686,3.686,3.686,3.686,3.686,3.686,3.708,3.708,3.73,3.73,3.753,3.753,3.776,3.776,3.776,3.799,3.799,3.799,3.799,3.799,3.799,3.776,3.776,3.776,3.776,3.776,3.776,3.776,3.776,3.776,3.776,3.799,3.799,3.799,3.799,3.799,3.799,3.799,3.799,3.799,3.799,3.799,3.822,3.822,3.822,3.822,3.822,3.822,3.822,3.822,3.822,3.822,3.846,3.846,3.822,3.822,3.822,3.822,3.822,3.799,3.799,3.776,3.776,3.776,3.776,3.776,3.776,3.776,3.776,3.799,3.799,3.822,3.822,3.822,3.822,3.846,3.846,3.846,3.87,3.87,3.87,3.87,3.87,3.846,3.846,3.846,3.846,3.822,3.799,3.799,3.776,3.776,3.753,3.753,3.753,3.753,3.753,3.753,3.753,3.753,3.753,3.753,3.776,3.799,3.799,3.822,3.822,3.846,3.87,3.87,3.894,3.894,3.894,3.894,3.894,3.894,3.894,3.87,3.87,3.87,3.87,3.87,3.846,3.846,3.846,3.846,3.846,3.846,3.846,3.846,3.87,3.87,3.87,3.87,3.894,3.894,3.894,3.894,3.894,3.894,3.894,3.87,3.87,3.87,3.846,3.846,3.822,3.822,3.822,3.822,3.822,3.822,3.822,3.822,3.846,3.846,3.87,3.87,3.87,3.87,3.87,3.894,3.87,3.87,3.87,3.87,3.87,3.87,3.87,3.87,3.846,3.846,3.846,3.846,3.846,3.846,3.846,3.846,3.846,3.846,3.87,3.87,3.87,3.87,3.87,3.87,3.894,3.894,3.894,3.919,3.944,3.944,3.944,3.944,3.944,3.944,3.919,3.919,3.894,3.894,3.87,3.846,3.846,3.822,3.799,3.753,3.708,3.664,3.621,3.559,3.518,3.479,3.459,3.402,3.365,3.347,3.311,3.294,3.276,3.225,3.175,3.175,3.159,3.175,3.159,3.127,3.081,3.065,3.035,3.006,2.991,2.963,2.921,2.893,2.88,2.84,2.815,2.789,2.777,2.752,2.716,2.681,2.669,2.646,2.624,2.602,0,2.559,2.548,2.548,2.548,2.559,2.559,2.559,2.559,2.569,2.569,2.569,2.591,2.58,2.569,2.559,2.548,2.527,2.517,2.497,2.487,2.467,2.457,2.447,2.438,2.428,2.419,2.409,2.4,2.391,2.382,2.372,2.363,2.354,2.345,2.328,2.328,2.319,2.31,2.302,2.285,2.268,2.252,2.227,2.204,2.18,2.158,2.143,2.121,2.099,2.085,2.071,2.057,2.05,2.037,2.03,2.017,2.01,1.997,1.991,1.985,1.978,1.972,1.972,1.966,1.96,1.953,1.953,1.953,1.953,1.941,1.941,1.935,1.923,1.917,1.905,1.894,1.882,1.871,1.865,1.854,1.843,1.805,1.774,1.739,1.715,1.683,1.66,1.638,1.629,1.621,1.621,1.617,1.613,1.608,1.6,1.592,1.588,1.58,1.572,1.564,1.556,1.548,1.544,1.544,1.54,1.533,1.525,1.518,1.507,1.496,1.485,1.478,1.467,1.46,1.454,1.447,1.443,1.443,1.44,1.437,1.433,1.43,1.423,1.42,1.414,1.407,1.401,1.395,1.388,1.382,1.376,1.37,1.364,1.361,1.355,1.352,1.349,1.346,1.346,1.34,1.337,1.334,1.332,1.326,1.32,1.317,1.312,1.309,1.304,1.298,1.293,1.287,1.282,1.277,1.271,1.264,1.259,1.253,1.248,1.243,1.241,1.236,1.231,1.229,1.224,1.221,1.217,1.214,1.212,1.209,1.205,1.202,1.2,1.198,1.195,1.193,1.191,1.188,1.188,1.186,1.179,1.173,1.162,1.153,1.138,1.126,1.114,1.102
1.608,1.613,1.617,1.625,1.629,1.634,1.642,1.651,1.66,1.665,1.669,1.674,1.678,1.683,1.692,1.696,1.706,1.715,1.73,1.744,1.759,1.774,1.795,1.805,1.816,1.827,1.837,1.848,1.859,1.865,1.876,1.882,1.899,1.911,1.923,1.935,1.947,1.966,1.985,2.004,2.024,2.044,2.064,2.085,2.106,2.121,2.135,2.15,2.165,2.18,2.196,2.204,2.219,2.235,2.252,2.268,2.276,2.285,2.302,2.319,2.337,2.354,2.372,2.391,2.391,2.409,2.428,2.447,2.477,2.477,2.497,2.507,2.527,2.559,2.602,2.624,2.646,2.681,2.802,2.935,3.035,3.143,3.259,3.384,3.518,3.664,3.708,3.73,3.73,3.73,3.73,3.708,3.73,3.708,3.708,3.708,3.708,3.708,3.708,3.708,3.708,3.708,3.73,3.73,3.753,3.753,3.776,3.776,3.776,3.776,3.799,3.799,3.799,3.799,3.799,3.799,3.799,3.799,3.799,3.776,3.799,3.799,3.799,3.799,3.799,3.822,3.822,3.822,3.822,3.822,3.846,3.846,3.822,3.822,3.822,3.822,3.822,3.822,3.846,3.846,3.846,3.846,3.846,3.846,3.846,3.846,3.846,3.846,3.846,3.846,3.822,3.822,3.822,3.822,3.822,3.799,3.799,3.799,3.776,3.776,3.776,3.799,3.799,3.799,3.822,3.822,3.822,3.822,3.822,3.822,3.846,3.846,3.87,3.87,3.87,3.87,3.87,3.87,3.87,3.87,3.87,3.846,3.846,3.822,3.822,3.799,3.799,3.776,3.776,3.776,3.776,3.776,3.776,3.776,3.776,3.776,3.776,3.799,3.822,3.822,3.846,3.846,3.87,3.894,3.894,3.919,3.919,3.919,3.919,3.919,3.919,3.919,3.894,3.894,3.894,3.87,3.87,3.87,3.87,3.87,3.87,3.87,3.87,3.87,3.87,3.87,3.87,3.87,3.894,3.894,3.919,3.919,3.919,3.919,3.919,3.894,3.894,3.87,3.87,3.87,3.846,3.846,3.846,3.822,3.822,3.822,3.822,3.846,3.846,3.846,3.87,3.87,3.87,3.894,3.894,3.894,3.919,3.894,3.894,3.894,3.894,3.894,3.87,3.87,3.87,3.87,3.87,3.87,3.846,3.846,3.846,3.846,3.846,3.87,3.87,3.87,3.87,3.87,3.87,3.894,3.894,3.894,3.894,3.919,3.944,3.944,3.944,3.944,3.944,3.944,3.944,3.919,3.919,3.919,3.894,3.87,3.846,3.846,3.799,3.776,3.73,3.686,3.642,3.579,3.538,3.498,3.459,3.421,3.384,3.347,3.311,3.294,3.276,3.259,3.208,3.159,3.159,3.159,3.159,3.143,3.127,3.081,3.065,3.035,3.021,2.991,2.963,2.921,2.893,2.853,2.84,2.815,2.789,2.777,2.74,2.716,2.681,2.669,2.646,2.624,2.591,0,2.548,2.548,2.538,2.548,2.559,2.548,2.548,2.559,2.569,2.569,2.58,2.591,2.58,2.569,2.559,2.548,2.527,2.517,2.497,2.477,2.457,2.447,2.447,2.438,2.428,2.419,2.409,2.4,2.391,2.382,2.372,2.363,2.354,2.345,2.337,2.328,2.328,2.319,2.302,2.285,2.276,2.252,2.227,2.204,2.18,2.158,2.135,2.113,2.092,2.078,2.064,2.057,2.044,2.037,2.03,2.024,2.017,2.004,1.997,1.991,1.985,1.978,1.972,1.966,1.96,1.953,1.953,1.953,1.953,1.941,1.941,1.935,1.923,1.917,1.905,1.894,1.882,1.871,1.865,1.854,1.843,1.811,1.774,1.744,1.715,1.683,1.66,1.642,1.629,1.621,1.617,1.617,1.613,1.604,1.6,1.592,1.584,1.58,1.572,1.564,1.556,1.548,1.544,1.544,1.54,1.533,1.525,1.518,1.507,1.496,1.485,1.478,1.467,1.46,1.454,1.447,1.447,1.443,1.44,1.437,1.433,1.43,1.427,1.423,1.417,1.41,1.404,1.398,1.388,1.382,1.376,1.37,1.364,1.358,1.355,1.352,1.349,1.346,1.343,1.34,1.334,1.332,1.329,1.32,1.317,1.312,1.306,1.304,1.298,1.293,1.29,1.285,1.279,1.274,1.269,1.264,1.259,1.253,1.248,1.246,1.241,1.238,1.233,1.229,1.226,1.221,1.219,1.214,1.212,1.209,1.205,1.202,1.2,1.198,1.195,1.193,1.191,1.188,1.188,1.186,1.179,1.173,1.164,1.153,1.142,1.13,1.118,1.106
1.604,1.613,1.617,1.625,1.629,1.638,1.642,1.651,1.66,1.669,1.674,1.678,1.683,1.687,1.692,1.701,1.711,1.72,1.734,1.749,1.764,1.779,1.795,1.805,1.821,1.832,1.843,1.854,1.859,1.871,1.876,1.888,1.899,1.911,1.923,1.935,1.953,1.966,1.985,2.004,2.024,2.037,2.057,2.078,2.099,2.121,2.128,2.143,2.158,2.173,2.188,2.211,2.219,2.235,2.252,2.268,2.276,2.293,2.31,2.337,2.354,2.372,2.4,2.409,2.419,2.438,2.457,2.477,2.497,2.517,2.517,2.538,2.559,2.58,2.613,2.646,2.669,2.716,2.827,2.949,3.05,3.159,3.259,3.384,3.538,3.686,3.708,3.73,3.73,3.73,3.753,3.73,3.753,3.73,3.73,3.708,3.708,3.708,3.708,3.708,3.73,3.73,3.73,3.753,3.753,3.776,3.776,3.776,3.776,3.799,3.799,3.799,3.799,3.799,3.799,3.799,3.799,3.799,3.799,3.799,3.799,3.799,3.799,3.822,3.822,3.822,3.846,3.846,3.87,3.87,3.87,3.87,3.87,3.87,3.87,3.87,3.87,3.87,3.87,3.87,3.87,3.87,3.87,3.846,3.846,3.846,3.846,3.846,3.846,3.846,3.846,3.846,3.846,3.822,3.822,3.822,3.822,3.799,3.799,3.799,3.822,3.822,3.822,3.822,3.822,3.822,3.822,3.846,3.846,3.846,3.87,3.87,3.87,3.87,3.87,3.87,3.894,3.894,3.894,3.894,3.87,3.87,3.87,3.846,3.846,3.822,3.822,3.799,3.799,3.799,3.799,3.799,3.799,3.799,3.799,3.799,3.799,3.822,3.846,3.846,3.846,3.87,3.894,3.894,3.919,3.919,3.919,3.919,3.919,3.919,3.919,3.919,3.919,3.919,3.894,3.894,3.894,3.87,3.87,3.87,3.87,3.87,3.87,3.87,3.87,3.894,3.894,3.894,3.919,3.919,3.919,3.919,3.919,3.919,3.919,3.919,3.894,3.87,3.87,3.87,3.87,3.846,3.846,3.846,3.846,3.846,3.846,3.846,3.87,3.87,3.87,3.894,3.919,3.919,3.919,3.919,3.919,3.919,3.919,3.919,3.919,3.919,3.894,3.894,3.894,3.894,3.87,3.87,3.87,3.87,3.87,3.87,3.87,3.87,3.87,3.87,3.87,3.894,3.894,3.894,3.894,3.894,3.919,3.944,3.944,3.944,3.944,3.944,3.969,3.969,3.944,3.944,3.919,3.919,3.894,3.87,3.846,3.822,3.799,3.753,3.708,3.642,3.6,3.559,3.498,3.479,3.421,3.402,3.365,3.329,3.294,3.276,3.259,3.242,3.192,3.159,3.143,3.159,3.159,3.143,3.127,3.081,3.035,3.021,2.991,2.977,2.949,2.907,2.88,2.853,2.827,2.815,2.789,2.777,2.74,2.716,2.681,2.658,2.646,2.613,2.591,0,2.548,2.538,2.538,2.548,2.548,2.548,2.548,2.559,2.569,2.569,2.58,2.591,2.58,2.58,2.559,2.548,2.538,2.517,2.497,2.477,2.457,2.447,2.447,2.438,2.428,2.419,2.409,2.4,2.4,2.391,2.382,2.372,2.363,2.345,2.345,2.337,2.328,2.319,2.302,2.285,2.268,2.252,2.227,2.196,2.173,2.15,2.128,2.106,2.085,2.071,2.064,2.05,2.044,2.037,2.037,2.024,2.017,2.01,2.004,1.991,1.985,1.978,1.972,1.966,1.96,1.953,1.953,1.953,1.953,1.941,1.941,1.935,1.929,1.917,1.911,1.899,1.888,1.876,1.871,1.859,1.843,1.811,1.779,1.749,1.715,1.687,1.665,1.647,1.629,1.621,1.617,1.613,1.608,1.604,1.6,1.592,1.584,1.58,1.572,1.564,1.556,1.548,1.544,1.54,1.536,1.529,1.525,1.514,1.507,1.496,1.485,1.474,1.467,1.46,1.454,1.447,1.447,1.443,1.443,1.44,1.437,1.433,1.43,1.423,1.42,1.414,1.407,1.401,1.391,1.385,1.379,1.37,1.364,1.358,1.355,1.352,1.349,1.346,1.343,1.34,1.334,1.329,1.323,1.317,1.315,1.309,1.304,1.298,1.293,1.29,1.285,1.282,1.277,1.271,1.266,1.261,1.259,1.253,1.248,1.246,1.241,1.238,1.233,1.229,1.226,1.221,1.219,1.214,1.212,1.207,1.205,1.202,1.198,1.195,1.193,1.191,1.191,1.188,1.186,1.184,1.179,1.175,1.164,1.155,1.145,0,1.12,1.108
1.604,1.613,1.617,1.625,1.634,1.638,1.647,1.656,1.665,1.674,1.678,1.683,1.687,1.692,1.696,1.701,1.711,1.725,1.739,1.754,1.769,1.784,1.8,1.811,1.827,1.837,1.843,1.854,1.865,1.871,1.882,1.888,1.905,1.917,1.929,1.941,1.953,1.972,1.985,2.004,2.024,2.044,2.057,2.071,2.092,2.113,2.128,2.143,2.158,2.18,2.196,2.204,2.219,2.235,2.252,2.268,2.285,2.302,2.328,2.345,2.372,2.391,2.409,2.428,2.447,2.467,2.487,2.507,2.527,2.548,2.559,2.569,2.58,2.602,2.635,2.658,2.681,2.74,2.84,2.949,3.065,3.175,3.276,3.402,3.538,3.686,3.73,3.753,3.753,3.753,3.776,3.753,3.753,3.753,3.753,3.753,3.73,3.73,3.73,3.73,3.73,3.73,3.753,3.753,3.776,3.776,3.776,3.776,3.799,3.799,3.799,3.799,3.799,3.799,3.799,3.799,3.799,3.799,3.799,3.799,3.799,3.822,3.822,3.822,3.846,3.87,3.87,3.87,3.894,3.894,3.894,3.894,3.894,3.894,3.894,3.87,3.87,3.87,3.87,3.87,3.87,3.87,3.87,3.87,3.87,3.87,3.846,3.846,3.87,3.846,3.846,3.846,3.846,3.846,3.846,3.822,3.822,3.822,3.822,3.822,3.822,3.822,3.822,3.846,3.846,3.846,3.87,3.87,3.87,3.87,3.87,3.87,3.87,3.894,3.894,3.894,3.919,3.919,3.894,3.919,3.894,3.894,3.87,3.87,3.87,3.846,3.846,3.846,3.822,3.822,3.799,3.799,3.799,3.799,3.799,3.822,3.822,3.846,3.846,3.87,3.87,3.894,3.919,3.919,3.919,3.919,3.919,3.944,3.944,3.944,3.944,3.919,3.919,3.919,3.919,3.919,3.919,3.919,3.894,3.894,3.894,3.894,3.894,3.919,3.919,3.919,3.919,3.919,3.919,3.919,3.919,3.919,3.919,3.919,3.919,3.919,3.894,3.894,3.87,3.87,3.87,3.87,3.87,3.846,3.846,3.87,3.87,3.87,3.87,3.894,3.894,3.919,3.919,3.919,3.919,3.944,3.944,3.944,3.919,3.919,3.919,3.919,3.919,3.919,3.919,3.919,3.894,3.894,3.894,3.894,3.894,3.894,3.87,3.87,3.894,3.894,3.894,3.894,3.894,3.894,3.894,3.919,3.944,3.944,3.944,3.944,3.944,3.969,3.969,3.969,3.944,3.944,3.944,3.919,3.894,3.87,3.846,3.822,3.776,3.73,3.686,3.621,3.579,3.518,3.479,3.44,3.402,3.365,3.329,3.294,3.276,3.242,3.242,3.225,3.175,3.143,3.127,3.143,3.143,3.127,3.112,3.065,3.05,3.035,3.006,2.977,2.949,2.907,2.88,2.853,2.84,2.815,2.789,2.777,2.74,2.716,2.681,2.658,2.635,2.613,2.591,0,2.548,2.538,2.538,2.548,2.548,2.548,2.559,2.559,2.569,2.58,2.58,2.58,2.58,2.569,2.559,2.548,2.538,2.517,2.497,2.477,2.467,2.457,2.447,2.438,2.428,2.428,2.419,2.409,2.4,2.391,2.382,2.382,2.372,2.363,2.345,2.337,2.328,2.319,2.302,2.285,2.268,2.244,2.219,2.188,2.165,2.143,2.121,2.099,2.078,2.071,2.057,2.05,2.044,2.037,2.037,2.03,2.024,2.01,2.004,1.997,1.991,1.985,1.978,1.966,1.96,1.953,1.953,1.953,1.953,1.941,1.941,1.935,1.929,1.917,1.911,1.899,1.888,1.876,1.871,1.859,1.848,1.821,1.784,1.754,1.725,1.692,1.669,1.651,1.634,1.621,1.613,1.608,1.608,1.604,1.6,1.592,1.584,1.576,1.572,1.564,1.556,1.548,1.544,1.536,1.536,1.529,1.521,1.514,1.503,1.496,1.485,1.474,1.467,1.457,1.454,1.447,1.447,1.443,1.44,1.437,1.437,1.433,1.43,1.423,1.417,1.41,1.404,1.398,1.391,1.385,1.376,1.37,1.364,1.358,1.355,1.352,1.349,1.346,1.343,1.337,1.332,1.326,1.323,1.315,1.309,1.304,1.298,1.295,1.29,1.285,1.282,1.279,1.274,1.269,1.266,1.261,1.259,1.253,1.248,1.246,1.241,1.238,1.233,1.231,1.226,1.221,1.219,1.217,1.212,1.209,1.205,1.2,1.198,1.195,1.193,1.191,1.188,1.186,1.184,1.182,1.179,1.173,1.166,1.155,1.145,0,1.122,1.112
1.608,1.617,1.621,1.629,1.638,1.647,1.651,1.66,1.665,1.674,1.678,1.683,1.687,1.696,1.696,1.706,1.715,1.73,1.739,1.759,1.774,1.79,1.8,1.816,1.827,1.832,1.843,1.854,1.865,1.871,1.882,1.888,1.905,1.917,1.929,1.947,1.96,1.978,1.991,2.01,2.024,2.044,2.057,2.071,2.092,2.106,2.121,2.143,2.165,2.173,2.188,2.204,2.219,2.235,2.252,2.268,2.285,2.31,2.328,2.354,2.382,2.4,2.428,2.457,2.477,2.497,2.517,2.548,2.569,2.58,2.58,2.591,2.602,2.624,2.658,2.669,2.692,2.752,2.853,2.963,3.081,3.175,3.294,3.421,3.559,3.686,3.73,3.753,3.776,3.776,3.776,3.776,3.776,3.776,3.776,3.776,3.753,3.753,3.753,3.753,3.753,3.753,3.753,3.776,3.776,3.799,3.799,3.799,3.799,3.799,3.822,3.822,3.822,3.822,3.799,3.822,3.799,3.822,3.822,3.822,3.822,3.846,3.846,3.87,3.87,3.87,3.894,3.919,3.919,3.919,3.919,3.919,3.919,3.919,3.919,3.919,3.894,3.894,3.894,3.894,3.894,3.87,3.87,3.87,3.87,3.87,3.87,3.87,3.87,3.87,3.846,3.846,3.846,3.846,3.846,3.846,3.846,3.846,3.846,3.846,3.846,3.846,3.87,3.87,3.87,3.87,3.87,3.87,3.87,3.894,3.894,3.894,3.919,3.919,3.919,3.919,3.919,3.919,3.919,3.919,3.919,3.919,3.894,3.894,3.87,3.87,3.87,3.87,3.846,3.846,3.822,3.822,3.822,3.822,3.846,3.846,3.846,3.87,3.87,3.87,3.894,3.894,3.919,3.919,3.919,3.919,3.919,3.944,3.944,3.944,3.944,3.944,3.944,3.919,3.919,3.919,3.919,3.919,3.919,3.919,3.919,3.919,3.919,3.919,3.919,3.919,3.919,3.919,3.919,3.944,3.944,3.919,3.919,3.919,3.919,3.919,3.919,3.894,3.87,3.87,3.87,3.87,3.87,3.87,3.87,3.87,3.87,3.894,3.894,3.919,3.919,3.919,3.944,3.944,3.969,3.969,3.969,3.969,3.969,3.969,3.944,3.944,3.944,3.944,3.919,3.919,3.919,3.919,3.919,3.894,3.894,3.894,3.894,3.894,3.894,3.894,3.894,3.894,3.894,3.894,3.919,3.919,3.944,3.944,3.944,3.944,3.944,3.969,3.969,3.969,3.944,3.944,3.944,3.919,3.894,3.87,3.846,3.799,3.753,3.708,3.642,3.6,3.559,3.518,3.459,3.421,3.384,3.365,3.311,3.276,3.259,3.225,3.225,3.225,3.175,3.143,3.127,3.143,3.143,3.143,3.096,3.065,3.05,3.021,3.006,2.991,2.949,2.907,2.88,2.853,2.827,2.802,2.789,2.764,2.74,2.716,2.681,2.669,2.635,2.613,2.591,2.569,2.548,2.548,2.548,2.559,2.559,2.559,2.559,2.569,2.569,2.58,2.58,2.591,2.591,2.569,2.569,2.559,2.538,2.517,2.507,2.487,2.477,2.467,2.457,2.447,2.438,2.428,2.419,2.409,2.4,2.4,2.391,2.382,2.372,2.363,2.354,2.345,2.337,2.319,2.302,2.285,2.26,2.235,2.211,2.18,2.158,2.135,2.113,2.092,2.078,2.064,2.05,2.044,2.044,2.037,2.037,2.03,2.024,2.017,2.004,1.997,1.991,1.985,1.978,1.966,1.96,1.953,1.953,1.953,1.947,1.941,1.941,1.935,1.929,1.923,1.911,1.905,1.894,1.882,1.876,1.865,1.854,1.832,1.795,1.759,0,1.696,1.669,1.651,1.629,1.617,1.613,1.608,1.608,1.604,1.596,1.592,1.584,1.576,1.568,1.56,1.552,1.544,1.54,1.536,1.533,1.525,1.518,1.51,1.503,1.492,1.485,1.474,1.464,1.457,1.45,1.447,1.443,1.44,1.44,1.437,1.433,1.433,1.43,1.423,1.417,1.41,1.404,1.398,1.388,1.382,1.376,1.37,1.364,1.361,1.355,1.352,1.349,1.346,1.343,1.334,1.332,1.326,1.317,1.312,1.306,1.301,1.295,1.29,1.285,1.282,1.279,1.274,1.271,1.266,1.264,1.261,1.256,1.253,1.248,1.243,1.241,1.236,1.233,1.231,1.226,1.221,1.219,1.217,1.212,1.209,1.205,1.2,1.198,1.193,1.191,1.188,1.186,1.184,1.182,1.182,1.177,1.173,1.166,1.157,1.147,0,1.124,1.114
1.608,1.617,1.625,1.634,1.642,1.647,1.656,1.66,1.669,1.678,1.683,1.683,1.692,1.696,1.701,1.711,1.72,1.73,1.744,1.759,1.774,1.79,1.8,1.811,1.827,1.837,1.843,1.854,1.859,1.871,1.882,1.888,1.905,1.917,1.929,1.947,1.96,1.978,1.997,2.01,2.03,2.044,2.057,2.071,2.092,2.106,2.121,2.143,2.158,2.173,2.196,2.204,2.219,2.235,2.252,2.268,2.285,2.31,2.337,2.363,2.4,2.428,2.457,2.477,2.507,2.527,2.548,2.58,2.591,2.602,2.613,2.624,2.635,2.646,2.669,2.692,2.704,2.764,2.867,2.977,3.081,3.175,3.294,3.421,3.559,3.708,3.73,3.776,3.776,3.799,3.799,3.799,3.799,3.799,3.799,3.799,3.799,3.799,3.799,3.799,3.776,3.799,3.799,3.799,3.799,3.822,3.822,3.822,3.822,3.822,3.846,3.822,3.822,3.822,3.822,3.822,3.822,3.822,3.846,3.846,3.846,3.846,3.87,3.87,3.894,3.894,3.919,3.919,3.919,3.944,3.944,3.944,3.944,3.944,3.919,3.919,3.919,3.919,3.919,3.919,3.919,3.894,3.894,3.87,3.87,3.87,3.87,3.87,3.87,3.87,3.87,3.87,3.87,3.846,3.846,3.846,3.846,3.846,3.87,3.87,3.87,3.87,3.87,3.894,3.894,3.894,3.894,3.894,3.919,3.919,3.919,3.919,3.919,3.919,3.919,3.944,3.944,3.919,3.919,3.919,3.919,3.919,3.919,3.919,3.894,3.894,3.87,3.87,3.87,3.87,3.87,3.87,3.87,3.87,3.87,3.87,3.87,3.87,3.894,3.894,3.919,3.919,3.919,3.919,3.919,3.919,3.944,3.944,3.944,3.944,3.944,3.944,3.944,3.944,3.944,3.944,3.944,3.944,3.944,3.944,3.944,3.944,3.944,3.944,3.944,3.944,3.944,3.944,3.944,3.944,3.944,3.944,3.944,3.919,3.919,3.919,3.919,3.894,3.894,3.87,3.87,3.87,3.87,3.87,3.87,3.87,3.894,3.894,3.919,3.919,3.944,3.944,3.969,3.969,3.969,3.969,3.969,3.969,3.969,3.969,3.969,3.969,3.969,3.969,3.944,3.944,3.944,3.919,3.919,3.919,3.919,3.919,3.919,3.919,3.894,3.919,3.919,3.919,3.919,3.919,3.919,3.944,3.944,3.944,3.944,3.944,3.969,3.969,3.969,3.969,3.969,3.944,3.944,3.919,3.894,3.87,3.822,3.799,3.73,3.686,3.642,3.579,3.538,3.479,3.44,3.421,3.365,3.347,3.294,3.276,3.225,3.208,3.208,3.192,3.159,3.143,3.127,3.127,3.143,3.127,3.096,3.065,3.035,3.021,2.991,2.991,2.949,2.907,2.88,2.853,2.827,2.802,2.777,2.764,2.74,2.716,2.681,2.658,2.635,2.613,2.58,2.569,2.548,2.548,2.548,2.559,2.559,2.559,2.559,2.569,2.569,2.58,2.591,2.591,2.591,2.58,2.569,2.559,2.538,2.527,2.507,2.497,2.477,2.467,2.457,2.447,2.438,2.438,2.428,2.419,2.409,2.4,2.4,2.391,2.382,2.372,2.363,2.354,2.337,2.319,2.302,2.276,2.252,2.227,2.204,2.173,2.143,2.121,2.106,2.085,2.071,2.064,2.05,2.044,2.044,2.037,2.037,2.03,2.024,2.017,2.01,2.004,1.997,1.991,1.978,1.966,1.96,1.953,1.953,1.947,1.947,1.941,1.941,1.935,1.929,1.923,1.917,1.905,1.894,1.888,1.876,1.871,1.859,1.843,1.805,1.769,1.734,1.706,1.678,1.651,1.634,1.617,1.613,1.608,1.608,1.604,1.596,1.588,1.58,1.572,1.568,1.56,1.548,1.54,1.536,1.533,1.529,1.521,1.514,1.507,1.499,1.488,1.481,1.471,1.464,1.454,1.45,1.447,1.443,1.44,1.437,1.433,1.43,1.43,1.427,1.42,1.414,1.407,1.401,1.395,1.388,1.382,1.373,1.367,1.364,1.361,1.355,1.352,1.349,1.343,1.34,1.334,1.329,1.323,1.315,1.309,1.301,1.295,1.293,1.287,1.282,1.277,1.274,1.271,1.269,1.264,1.259,1.259,1.256,1.251,1.246,1.243,1.238,1.236,1.233,1.231,1.226,1.224,1.219,1.217,1.212,1.209,1.202,1.2,1.195,1.193,1.191,1.186,1.184,1.182,1.179,1.179,1.177,1.173,1.166,1.157,1.149,1.138,0,1.118
1.613,1.621,1.629,1.638,1.642,1.651,1.656,1.665,1.669,1.678,1.683,1.687,1.692,1.696,1.706,1.711,1.72,1.734,1.744,1.759,1.774,1.784,1.8,1.811,1.821,1.832,1.837,1.848,1.859,1.871,1.876,1.888,1.905,1.917,1.929,1.947,1.966,1.985,1.997,2.017,2.03,2.05,2.057,2.071,2.085,2.099,2.121,2.135,2.158,2.173,2.188,2.204,2.219,2.227,2.244,2.268,2.293,2.319,2.354,2.372,2.409,2.438,2.477,2.507,2.527,2.559,2.569,2.602,2.613,2.624,2.635,2.646,2.658,2.669,2.692,2.704,2.716,2.777,2.867,2.977,3.081,3.192,3.311,3.421,3.559,3.708,3.73,3.776,3.776,3.799,3.822,3.822,3.822,3.846,3.822,3.822,3.822,3.822,3.822,3.822,3.822,3.822,3.822,3.822,3.822,3.822,3.822,3.822,3.846,3.846,3.846,3.846,3.846,3.846,3.846,3.846,3.846,3.846,3.846,3.846,3.846,3.87,3.87,3.894,3.919,3.919,3.919,3.944,3.944,3.969,3.969,3.969,3.969,3.969,3.969,3.944,3.944,3.944,3.919,3.919,3.919,3.919,3.894,3.894,3.87,3.87,3.87,3.87,3.87,3.87,3.87,3.87,3.87,3.87,3.87,3.87,3.87,3.87,3.87,3.894,3.894,3.894,3.919,3.919,3.919,3.919,3.919,3.919,3.919,3.919,3.919,3.944,3.944,3.944,3.944,3.944,3.944,3.944,3.944,3.944,3.944,3.944,3.919,3.919,3.919,3.919,3.919,3.894,3.894,3.87,3.87,3.87,3.87,3.87,3.87,3.894,3.894,3.894,3.894,3.919,3.919,3.919,3.919,3.919,3.919,3.944,3.944,3.944,3.944,3.969,3.969,3.969,3.969,3.969,3.969,3.969,3.969,3.969,3.969,3.969,3.969,3.969,3.969,3.969,3.969,3.969,3.969,3.969,3.969,3.969,3.969,3.944,3.944,3.944,3.919,3.919,3.919,3.894,3.894,3.894,3.87,3.87,3.87,3.87,3.87,3.894,3.894,3.919,3.919,3.944,3.944,3.969,3.969,3.969,3.995,3.995,3.995,3.995,3.995,3.995,3.995,3.995,3.995,3.969,3.969,3.969,3.969,3.944,3.944,3.944,3.944,3.944,3.919,3.919,3.919,3.919,3.919,3.919,3.919,3.919,3.944,3.944,3.944,3.944,3.944,3.944,3.969,3.969,3.969,3.969,3.969,3.944,3.944,3.919,3.894,3.846,3.822,3.776,3.73,3.664,3.621,3.579,3.538,3.479,3.44,3.421,3.365,3.347,3.294,3.259,3.225,3.208,3.208,3.192,3.175,3.159,3.127,3.143,3.143,3.159,3.127,3.081,3.05,3.035,3.006,2.991,2.949,2.907,2.867,2.853,2.815,2.789,2.777,2.752,2.728,2.704,2.669,2.658,2.635,2.613,2.591,2.569,2.559,2.548,2.548,2.559,2.559,2.569,2.559,2.569,2.569,2.58,2.58,2.58,2.58,2.569,2.559,2.548,2.538,2.527,2.517,2.497,2.487,2.477,2.467,2.457,2.447,2.438,2.428,2.419,2.409,2.4,2.4,2.391,2.382,2.372,2.372,2.354,2.337,2.319,2.293,2.268,2.244,2.219,2.188,2.158,2.128,2.113,2.099,2.078,2.071,2.057,2.05,2.044,2.044,2.037,2.037,2.03,2.024,2.017,2.01,2.004,1.997,1.991,1.985,1.966,1.96,1.953,1.947,1.947,1.941,1.941,1.935,1.929,1.923,1.923,1.917,1.905,1.899,1.888,1.882,1.871,1.865,1.854,1.811,1.779,1.744,1.711,1.683,1.66,1.638,1.617,1.613,1.613,1.608,1.604,1.596,1.588,1.58,1.572,1.564,1.556,1.548,1.536,1.533,1.525,1.521,1.518,1.51,1.503,1.492,1.485,1.478,1.467,1.46,1.454,1.447,1.443,1.44,1.437,1.437,1.43,1.43,1.427,1.423,1.417,1.41,1.404,1.398,1.391,1.385,1.379,1.373,1.367,1.361,1.358,1.355,1.352,1.346,1.343,1.337,1.334,1.329,1.32,1.315,1.306,1.301,1.295,1.29,1.285,1.279,1.277,1.271,1.269,1.266,1.261,1.259,1.256,1.253,1.248,1.246,1.241,1.238,1.236,1.233,1.231,1.226,1.224,1.219,1.217,1.212,1.207,1.202,1.198,1.193,1.191,1.188,1.186,1.184,1.182,1.179,1.177,1.175,1.173,1.166,1.157,1.149,1.14,1.13,1.122
1.617,1.621,1.629,1.638,1.647,1.656,1.66,1.665,1.674,1.678,1.683,1.687,1.692,1.701,1.706,1.715,1.72,1.734,1.749,1.759,1.774,1.784,1.795,1.805,1.821,1.832,1.837,1.848,1.859,1.865,1.876,1.894,1.905,1.917,1.935,1.953,1.972,1.991,2.01,2.03,2.044,2.05,2.064,2.078,2.092,2.106,2.121,2.135,2.158,2.173,2.188,2.196,2.211,2.227,2.244,2.268,2.293,2.319,2.354,2.391,2.419,2.457,2.487,2.517,2.548,2.569,2.602,2.613,2.635,2.635,2.646,2.658,2.669,2.681,2.692,2.704,2.728,2.789,2.867,2.963,3.065,3.175,3.294,3.421,3.559,3.708,3.73,3.776,3.799,3.799,3.846,3.846,3.846,3.846,3.87,3.87,3.87,3.87,3.846,3.846,3.846,3.846,3.846,3.846,3.846,3.846,3.846,3.846,3.846,3.846,3.846,3.846,3.846,3.846,3.846,3.846,3.846,3.846,3.87,3.87,3.87,3.87,3.894,3.919,3.919,3.944,3.944,3.969,3.969,3.969,3.969,3.969,3.969,3.969,3.969,3.969,3.969,3.969,3.944,3.944,3.919,3.919,3.919,3.894,3.894,3.894,3.87,3.87,3.87,3.87,3.87,3.87,3.87,3.894,3.894,3.894,3.894,3.894,3.919,3.919,3.919,3.919,3.919,3.944,3.944,3.944,3.944,3.944,3.944,3.944,3.969,3.969,3.969,3.969,3.969,3.969,3.969,3.969,3.969,3.969,3.969,3.944,3.944,3.944,3.919,3.919,3.919,3.919,3.919,3.919,3.894,3.894,3.894,3.894,3.894,3.894,3.894,3.919,3.919,3.919,3.919,3.919,3.919,3.919,3.919,3.944,3.944,3.944,3.969,3.969,3.969,3.969,3.969,3.969,3.969,3.969,3.969,3.969,3.969,3.969,3.969,3.995,3.995,3.969,3.969,3.969,3.969,3.969,3.969,3.969,3.969,3.969,3.969,3.944,3.944,3.919,3.919,3.919,3.894,3.894,3.894,3.894,3.894,3.894,3.894,3.919,3.919,3.919,3.944,3.944,3.969,3.969,3.969,3.995,3.995,4.021,4.021,4.021,4.021,4.021,4.021,3.995,3.995,3.995,3.995,3.969,3.969,3.969,3.969,3.969,3.944,3.944,3.944,3.944,3.944,3.944,3.944,3.944,3.944,3.944,3.944,3.944,3.944,3.944,3.944,3.969,3.969,3.969,3.969,3.969,3.969,3.944,3.944,3.919,3.894,3.846,3.822,3.776,3.708,3.664,3.621,3.559,3.518,3.479,3.44,3.402,3.365,3.347,3.294,3.242,3.225,3.192,3.208,3.192,3.159,3.159,3.127,3.143,3.143,3.159,3.127,3.081,3.05,3.035,3.021,2.991,2.935,2.893,2.867,2.84,2.802,2.777,2.764,2.74,2.728,2.704,2.669,2.646,2.624,2.613,2.591,0,2.559,2.548,2.548,2.559,2.569,2.569,2.559,2.559,2.569,2.569,2.569,2.569,2.569,2.569,2.548,2.548,2.538,2.527,2.517,2.507,2.497,2.477,2.467,2.457,2.447,2.438,2.438,2.428,2.419,2.409,2.4,2.391,2.382,2.382,2.372,2.354,2.337,2.31,2.285,2.26,2.227,2.204,2.173,2.143,2.121,2.106,2.092,2.078,2.071,2.057,2.05,2.044,2.044,2.037,2.037,2.03,2.024,2.024,2.01,2.01,1.997,1.991,1.985,1.972,1.96,1.953,1.947,1.947,1.941,1.941,1.935,1.929,1.923,1.923,1.917,1.911,1.899,1.894,1.882,1.882,1.871,1.859,1.821,1.784,1.754,1.72,1.687,1.665,1.638,1.621,1.617,1.613,1.608,1.604,1.596,1.588,1.58,1.572,1.564,1.552,1.544,1.536,1.529,1.521,1.518,1.51,1.503,1.496,1.488,1.481,1.471,1.464,1.457,1.45,1.443,1.44,1.44,1.437,1.433,1.43,1.427,1.423,1.42,1.414,1.407,1.401,1.395,1.388,1.382,1.376,1.37,1.364,1.358,1.355,1.352,1.349,1.343,1.34,1.334,1.332,1.323,1.32,1.312,1.306,1.298,1.293,1.29,1.282,1.279,1.274,1.271,1.266,1.264,1.261,1.259,1.253,1.251,1.248,1.246,1.241,1.238,1.236,1.233,1.231,1.226,1.221,1.219,1.214,1.209,1.205,1.2,1.195,1.193,1.188,1.186,1.184,1.182,1.179,1.177,1.175,1.175,1.171,1.166,1.16,1.151,1.142,1.134,1.124
1.621,1.629,1.638,1.642,1.651,1.656,1.66,1.665,1.674,1.678,1.683,1.687,1.696,1.701,1.706,1.715,1.725,1.734,1.749,1.759,1.774,1.784,1.795,1.805,1.816,1.827,1.837,1.843,1.854,1.859,1.876,1.882,1.894,1.911,1.929,1.941,1.966,1.991,2.01,2.03,2.05,2.057,2.071,2.078,2.092,2.106,2.121,2.135,2.15,2.165,2.18,2.196,2.211,2.227,2.235,2.26,2.293,2.328,2.363,2.391,2.428,2.457,2.497,2.527,2.559,2.58,2.602,2.624,2.635,2.646,2.658,2.669,2.681,2.692,2.704,2.716,2.74,2.789,2.88,2.963,3.065,3.175,3.294,3.421,3.559,3.686,3.73,3.776,3.799,3.822,3.846,3.87,3.87,3.894,3.894,3.894,3.894,3.894,3.894,3.87,3.87,3.87,3.87,3.87,3.87,3.87,3.87,3.87,3.87,3.87,3.87,3.87,3.87,3.87,3.87,3.87,3.87,3.87,3.87,3.87,3.894,3.894,3.919,3.919,3.944,3.969,3.969,3.969,3.995,3.995,3.995,3.995,3.995,3.995,3.995,3.969,3.969,3.969,3.969,3.969,3.944,3.919,3.919,3.919,3.919,3.894,3.894,3.894,3.894,3.894,3.894,3.894,3.894,3.894,3.919,3.919,3.919,3.919,3.919,3.919,3.944,3.944,3.969,3.969,3.969,3.969,3.969,3.969,3.969,3.969,3.969,3.969,3.969,3.969,3.969,3.969,3.969,3.969,3.969,3.969,3.969,3.969,3.969,3.944,3.944,3.944,3.944,3.919,3.919,3.919,3.919,3.919,3.919,3.919,3.919,3.919,3.919,3.919,3.919,3.919,3.919,3.919,3.944,3.919,3.944,3.944,3.944,3.969,3.969,3.969,3.969,3.969,3.995,3.995,3.995,3.995,3.995,3.995,3.995,3.995,3.995,3.995,3.995,3.995,3.995,3.995,3.995,3.995,3.969,3.969,3.969,3.969,3.969,3.969,3.944,3.919,3.919,3.919,3.919,3.919,3.894,3.894,3.894,3.894,3.919,3.919,3.919,3.944,3.944,3.969,3.969,3.969,3.995,4.021,4.021,4.021,4.021,4.021,4.021,4.021,4.021,4.021,4.021,4.021,4.021,3.995,3.995,3.995,3.969,3.969,3.969,3.969,3.969,3.944,3.944,3.944,3.944,3.944,3.944,3.944,3.944,3.944,3.969,3.969,3.969,3.969,3.969,3.969,3.969,3.969,3.944,3.944,3.944,3.919,3.894,3.846,3.799,3.753,3.686,3.642,3.6,3.559,3.518,3.479,3.44,3.402,3.365,3.365,3.311,3.259,3.225,3.192,3.192,3.192,3.175,3.159,3.143,3.143,3.143,3.143,3.143,3.096,3.05,3.035,3.021,2.991,2.935,2.893,2.867,2.827,2.802,2.777,2.752,2.74,2.716,2.692,2.669,2.646,2.624,2.602,2.591,2.569,2.559,2.559,2.559,2.569,2.569,2.569,2.559,2.559,2.559,2.559,2.559,2.559,2.559,2.559,2.548,2.538,2.538,2.527,2.517,2.507,2.497,2.487,2.477,2.467,2.457,2.447,2.438,2.428,2.419,2.409,2.4,2.391,2.382,2.372,2.363,2.345,2.319,2.302,2.268,2.244,2.211,2.188,2.158,2.135,2.113,2.099,2.085,2.078,2.071,2.064,2.05,2.044,2.044,2.044,2.037,2.03,2.03,2.024,2.017,2.01,2.004,1.997,1.985,1.972,1.96,1.953,1.947,1.941,1.941,1.935,1.935,1.929,1.929,1.923,1.917,1.911,1.899,1.894,1.888,1.888,1.876,1.871,1.832,1.795,1.759,0,1.696,1.669,1.642,1.625,1.617,1.617,1.613,1.608,1.6,1.592,1.584,1.572,1.564,1.552,1.544,1.533,1.525,1.518,1.51,1.503,1.496,1.492,1.485,1.474,1.467,1.46,1.454,1.447,1.443,1.44,1.437,1.433,1.43,1.427,1.423,1.42,1.417,1.41,1.404,1.398,1.391,1.385,1.379,1.373,1.367,1.361,1.355,1.352,1.349,1.346,1.343,1.34,1.334,1.329,1.323,1.32,1.312,1.306,1.301,1.295,1.29,1.285,1.282,1.277,1.274,1.269,1.264,1.261,1.256,1.253,1.251,1.248,1.243,1.241,1.238,1.236,1.233,1.229,1.226,1.221,1.217,1.212,1.209,1.205,1.2,1.195,1.191,1.188,1.186,1.184,1.182,1.179,1.177,1.175,1.173,1.173,1.166,1.16,1.151,1.142,1.132,1.124
1.625,1.634,1.642,1.647,1.656,1.66,1.665,1.669,1.678,1.683,1.687,1.692,1.696,1.706,1.711,1.72,1.73,1.734,1.749,1.759,1.774,1.784,1.795,1.805,1.816,1.821,1.832,1.843,1.848,1.859,1.871,1.882,1.894,1.911,1.929,1.941,1.966,1.991,2.017,2.037,2.057,2.071,2.078,2.085,2.099,2.106,2.121,2.135,2.15,2.165,2.18,2.196,2.211,2.219,2.244,2.268,2.293,2.328,2.363,2.4,2.438,2.467,2.507,2.538,2.569,2.591,2.613,2.624,2.646,2.658,2.669,2.669,2.681,2.692,2.704,2.728,2.752,2.802,2.88,2.963,3.065,3.175,3.294,3.421,3.538,3.686,3.73,3.753,3.799,3.822,3.87,3.894,3.894,3.919,3.919,3.919,3.919,3.919,3.919,3.919,3.919,3.919,3.894,3.894,3.894,3.894,3.894,3.894,3.894,3.894,3.894,3.894,3.894,3.894,3.894,3.894,3.894,3.894,3.894,3.894,3.919,3.919,3.919,3.944,3.969,3.969,3.969,3.969,3.995,3.995,3.995,3.995,4.021,3.995,3.995,3.995,3.995,3.969,3.969,3.969,3.969,3.944,3.944,3.919,3.919,3.919,3.919,3.919,3.919,3.919,3.919,3.919,3.919,3.919,3.919,3.919,3.944,3.944,3.944,3.969,3.969,3.969,3.969,3.969,3.969,3.969,3.969,3.969,3.969,3.969,3.995,3.995,3.995,3.995,3.995,3.995,3.995,3.995,3.969,3.969,3.969,3.969,3.969,3.969,3.969,3.969,3.944,3.944,3.944,3.944,3.919,3.919,3.919,3.919,3.919,3.919,3.919,3.919,3.919,3.944,3.944,3.944,3.944,3.944,3.944,3.969,3.969,3.969,3.969,3.969,3.995,3.995,3.995,4.021,4.021,4.021,4.021,4.021,4.021,4.021,4.021,4.021,4.021,4.021,4.021,4.021,4.021,3.995,3.995,3.995,3.969,3.969,3.969,3.969,3.944,3.944,3.919,3.919,3.919,3.919,3.919,3.919,3.919,3.919,3.919,3.919,3.944,3.944,3.969,3.969,3.995,3.995,4.021,4.021,4.021,4.021,4.047,4.047,4.047,4.047,4.047,4.047,4.047,4.047,4.021,4.021,4.021,4.021,4.021,3.995,3.995,3.995,3.995,3.969,3.969,3.969,3.969,3.969,3.969,3.969,3.969,3.969,3.969,3.969,3.969,3.969,3.969,3.969,3.969,3.969,3.944,3.944,3.944,3.919,3.894,3.846,3.799,3.753,3.686,3.642,3.6,3.559,3.538,3.498,3.459,3.421,3.402,3.365,3.311,3.294,3.225,3.192,3.192,3.175,3.159,3.159,3.143,3.143,3.143,3.143,3.127,3.096,3.065,3.035,3.006,2.991,2.935,2.88,2.853,2.815,2.789,2.764,2.752,2.716,2.704,2.681,2.658,2.635,2.624,2.602,2.591,2.58,2.559,2.559,2.569,2.569,2.569,2.569,2.559,2.548,2.548,2.548,2.548,2.548,2.548,2.548,2.538,2.538,2.538,2.527,2.517,2.507,2.497,2.487,2.477,2.467,2.457,2.447,2.438,2.428,2.419,2.409,2.4,2.391,2.382,2.372,2.354,2.337,2.31,2.285,2.252,2.227,2.196,2.173,2.143,2.121,2.106,2.092,2.085,2.078,2.071,2.064,2.057,2.05,2.044,2.044,2.037,2.03,2.024,2.024,2.017,2.01,2.004,1.997,1.991,1.972,1.966,1.953,1.947,1.947,1.941,1.935,1.935,1.929,1.929,1.923,1.917,1.911,1.905,1.894,1.894,1.888,1.876,1.871,1.837,1.8,1.769,0,1.706,1.674,1.647,1.625,1.621,1.621,1.617,1.608,1.604,1.596,1.584,1.576,1.564,1.552,1.54,1.533,1.525,1.514,1.507,1.499,1.492,1.488,1.481,1.471,1.464,1.457,1.45,1.443,1.44,1.437,1.433,1.43,1.427,1.423,1.42,1.42,1.414,1.41,1.404,1.398,1.391,1.385,1.379,1.373,1.364,1.358,1.355,1.352,1.349,1.346,1.34,1.337,1.334,1.329,1.326,1.317,1.315,1.309,1.304,1.298,1.293,1.287,1.282,1.277,1.274,1.269,1.264,1.259,1.256,1.253,1.251,1.246,1.243,1.241,1.238,1.236,1.233,1.229,1.226,1.221,1.217,1.214,1.209,1.205,1.198,1.193,1.191,1.186,1.184,1.182,1.179,1.177,1.175,1.173,1.173,1.171,1.166,1.16,1.153,1.145,1.136,1.126
1.629,1.638,1.647,1.651,1.656,1.66,1.669,1.674,1.678,1.683,1.692,1.696,1.701,1.711,1.715,1.725,1.734,1.744,1.754,1.764,1.774,1.79,1.795,1.805,1.816,1.821,1.832,1.837,1.848,1.859,1.865,1.882,1.888,1.905,1.923,1.941,1.972,1.997,2.024,2.044,2.064,2.071,2.085,2.092,2.099,2.113,2.121,2.135,2.15,2.165,2.18,2.196,2.211,2.227,2.252,2.276,2.302,2.337,2.382,2.419,2.447,2.487,2.517,2.538,2.569,2.591,2.613,2.635,2.646,2.658,2.658,2.681,2.681,2.692,2.704,2.728,2.752,2.789,2.867,2.949,3.065,0,3.276,3.402,3.538,3.664,3.73,3.776,3.799,3.846,3.87,3.894,3.919,3.944,3.944,3.944,3.944,3.944,3.944,3.919,3.919,3.919,3.919,3.919,3.919,3.919,3.919,3.919,3.919,3.919,3.919,3.919,3.919,3.919,3.894,3.894,3.894,3.919,3.919,3.919,3.919,3.919,3.944,3.969,3.969,3.969,3.969,3.995,3.995,4.021,4.021,4.021,4.021,4.021,4.021,4.021,3.995,3.995,3.995,3.969,3.969,3.969,3.944,3.944,3.944,3.919,3.919,3.919,3.919,3.944,3.944,3.944,3.944,3.944,3.944,3.944,3.969,3.969,3.969,3.969,3.969,3.995,3.995,3.995,3.995,3.995,3.995,3.995,3.995,3.995,3.995,3.995,3.995,3.995,3.995,3.995,3.995,3.995,3.995,3.995,3.969,3.969,3.969,3.969,3.969,3.969,3.969,3.969,3.969,3.944,3.944,3.944,3.944,3.944,3.944,3.944,3.944,3.944,3.944,3.944,3.969,3.969,3.969,3.969,3.969,3.969,3.969,3.969,3.995,3.995,3.995,4.021,4.021,4.021,4.021,4.021,4.021,4.021,4.021,4.047,4.047,4.047,4.021,4.021,4.021,4.021,4.021,4.021,4.021,3.995,3.995,3.969,3.969,3.969,3.969,3.944,3.944,3.944,3.919,3.919,3.919,3.919,3.919,3.919,3.944,3.944,3.969,3.969,3.969,3.995,4.021,4.021,4.021,4.021,4.047,4.047,4.047,4.047,4.047,4.047,4.047,4.047,4.047,4.047,4.047,4.047,4.021,4.021,4.021,4.021,4.021,3.995,3.995,3.995,3.995,3.995,3.995,3.995,3.995,3.995,3.995,3.995,3.995,3.969,3.969,3.969,3.969,3.969,3.969,3.969,3.944,3.944,3.919,3.919,3.894,3.846,3.776,3.73,3.686,3.642,3.6,3.559,3.538,3.498,3.459,3.44,3.402,3.365,3.329,3.294,3.242,3.208,3.192,3.192,3.159,3.159,3.143,3.143,3.143,3.159,3.143,3.112,3.065,3.035,3.006,2.977,2.921,2.88,2.853,2.815,2.777,2.752,2.728,2.704,2.692,2.681,2.658,2.635,2.613,2.602,2.591,2.58,2.569,2.569,2.569,2.569,2.569,2.569,2.559,2.548,2.548,2.548,2.548,2.548,2.538,2.538,2.538,2.538,2.527,2.527,2.517,2.507,2.497,2.487,2.477,2.467,2.457,2.447,2.438,2.428,2.419,2.409,2.4,2.382,2.372,2.363,2.345,2.319,2.293,2.268,2.235,2.211,2.188,2.165,2.135,2.113,2.106,2.092,2.085,2.078,2.071,2.064,2.057,2.05,2.05,2.044,2.037,2.03,2.024,2.017,2.01,2.01,2.004,1.997,1.991,1.978,1.966,1.96,1.953,1.947,1.947,1.935,1.935,1.929,1.929,1.923,1.917,1.911,1.905,1.899,1.888,1.888,1.882,1.876,1.837,1.805,1.774,0,1.711,1.683,1.651,1.629,1.625,1.621,1.621,1.613,1.604,1.596,1.584,1.576,1.564,1.552,1.54,1.533,1.521,1.514,1.507,1.496,1.492,1.485,1.478,1.471,1.464,1.457,1.45,1.443,1.44,1.437,1.433,1.43,1.427,1.423,1.42,1.417,1.414,1.407,1.401,1.398,1.391,1.385,1.379,1.37,1.364,1.361,1.355,1.352,1.349,1.343,1.34,1.337,1.332,1.329,1.326,1.32,1.315,1.309,1.304,1.298,1.295,1.287,1.282,1.279,1.271,1.269,1.264,1.259,1.256,1.251,1.248,1.246,1.243,1.241,1.238,1.236,1.233,1.229,1.226,1.221,1.217,1.212,1.207,1.205,1.198,1.193,1.188,1.186,1.184,1.182,1.179,1.177,1.175,1.173,1.173,1.171,1.166,1.16,1.151,1.145,1.136,1.126
1.634,1.642,1.651,1.656,1.66,1.665,1.669,1.678,1.678,1.687,1.692,1.696,1.706,1.715,1.725,1.73,1.739,1.749,1.759,1.769,1.779,1.79,1.8,1.805,1.816,1.821,1.832,1.837,1.848,1.854,1.865,1.876,1.888,1.905,1.929,1.947,1.972,2.004,2.03,2.05,2.064,2.085,2.092,2.099,2.106,2.113,2.128,2.143,2.15,2.165,2.18,2.196,2.219,2.235,2.252,2.285,2.319,2.345,2.391,2.428,2.457,2.487,2.517,2.538,2.569,2.58,2.602,2.624,2.635,2.646,2.658,2.669,2.681,2.692,2.716,2.728,2.752,2.789,2.867,2.935,3.05,0,3.276,3.384,3.518,3.664,3.73,3.776,3.822,3.846,3.894,3.919,3.944,3.944,3.944,3.969,3.969,3.969,3.969,3.944,3.944,3.944,3.944,3.919,3.919,3.919,3.919,3.919,3.919,3.919,3.919,3.919,3.919,3.919,3.919,3.919,3.919,3.919,3.944,3.944,3.944,3.969,3.969,3.969,3.969,3.995,3.995,3.995,4.021,4.021,4.021,4.021,4.021,4.021,4.021,4.021,4.021,4.021,3.995,3.995,3.969,3.969,3.969,3.969,3.969,3.944,3.944,3.944,3.944,3.969,3.969,3.969,3.969,3.969,3.969,3.969,3.969,3.969,3.995,3.995,3.995,3.995,3.995,3.995,3.995,3.995,3.995,3.995,3.995,3.995,3.995,3.995,3.995,3.995,4.021,4.021,3.995,3.995,3.995,3.995,3.995,3.995,3.995,3.995,3.969,3.969,3.969,3.969,3.969,3.969,3.944,3.944,3.944,3.944,3.944,3.969,3.969,3.969,3.969,3.969,3.969,3.969,3.969,3.969,3.969,3.969,3.969,3.995,3.995,3.995,4.021,4.021,4.021,4.021,4.021,4.021,4.021,4.047,4.047,4.047,4.047,4.047,4.047,4.047,4.021,4.021,4.021,4.021,4.021,4.021,3.995,3.995,3.995,3.969,3.969,3.969,3.969,3.969,3.944,3.944,3.944,3.944,3.944,3.944,3.944,3.969,3.969,3.969,3.995,3.995,4.021,4.021,4.047,4.047,4.047,4.047,4.047,4.047,4.047,4.047,4.047,4.047,4.047,4.047,4.047,4.047,4.047,4.047,4.047,4.047,4.047,4.047,4.021,4.021,4.021,4.021,4.021,4.021,3.995,3.995,3.995,3.995,3.995,3.995,3.995,3.995,3.995,3.969,3.969,3.969,3.944,3.944,3.919,3.919,3.87,3.822,3.776,3.73,3.686,3.642,3.621,3.579,3.538,3.518,3.479,3.44,3.421,3.384,3.347,3.294,3.242,3.192,3.192,3.175,3.175,3.143,3.143,3.143,3.127,3.143,3.143,3.112,3.065,3.035,3.006,2.977,2.921,2.88,2.827,2.802,2.764,2.74,2.716,2.692,2.681,2.669,2.646,2.635,2.613,2.602,2.591,2.58,2.569,2.569,2.569,2.569,2.559,2.559,2.559,2.548,2.538,2.538,2.538,2.538,2.538,2.538,2.527,2.527,2.527,2.517,2.507,2.497,2.497,2.487,2.477,2.467,2.457,2.447,2.438,2.428,2.419,2.409,2.391,2.382,2.363,2.345,2.328,2.31,2.285,2.252,2.227,2.196,2.173,2.15,2.128,2.113,2.099,2.099,2.085,2.085,2.078,2.071,2.064,2.057,2.05,2.044,2.037,2.03,2.024,2.017,2.01,2.01,2.004,2.004,1.991,1.985,1.972,1.96,1.953,1.947,1.947,1.941,1.935,1.929,1.923,1.923,1.917,1.911,1.899,1.899,1.888,1.888,1.882,1.876,1.843,1.811,0,0,1.715,1.687,1.656,1.634,1.629,1.625,1.621,1.617,1.608,1.6,1.588,1.576,1.564,1.552,1.54,1.533,1.521,1.514,1.503,1.496,1.492,1.481,1.478,1.467,1.46,1.457,1.45,1.447,1.44,1.437,1.433,1.43,1.427,1.423,1.42,1.417,1.414,1.407,1.404,1.398,1.391,1.385,1.379,1.373,1.367,1.361,1.355,1.352,1.349,1.346,1.34,1.337,1.334,1.329,1.326,1.32,1.317,1.312,1.306,1.301,1.295,1.29,1.285,1.279,1.271,1.266,1.264,1.259,1.253,1.251,1.248,1.246,1.243,1.241,1.238,1.236,1.233,1.229,1.226,1.221,1.217,1.214,1.209,1.205,1.198,1.193,1.188,1.186,1.184,1.182,1.179,1.177,1.175,1.173,1.173,1.171,1.166,1.16,1.151,1.142,1.136,1.126
1.638,1.647,1.651,1.66,1.665,1.669,1.674,1.678,1.678,1.687,1.696,1.706,1.711,1.72,1.73,1.734,1.744,1.754,1.764,1.774,1.784,1.79,1.8,1.805,1.816,1.821,1.832,1.837,1.848,1.854,1.865,1.876,1.888,1.911,1.929,1.953,1.978,2.01,2.037,2.057,2.071,2.085,2.092,2.099,2.106,2.113,2.128,2.135,2.143,2.158,2.18,2.196,2.211,2.235,2.252,2.285,2.328,2.363,2.4,2.428,2.457,2.477,2.497,2.527,2.548,2.58,2.602,2.613,2.624,2.635,2.646,2.669,2.681,2.692,2.704,2.728,2.752,2.789,2.853,2.935,3.035,3.143,3.259,3.365,3.518,3.642,3.753,3.776,3.822,3.846,3.894,3.919,3.944,3.969,3.995,3.995,3.995,3.969,3.969,3.969,3.969,3.969,3.944,3.944,3.944,3.944,3.944,3.944,3.944,3.944,3.944,3.944,3.944,3.944,3.944,3.944,3.944,3.969,3.969,3.969,3.969,3.969,3.969,3.995,3.995,3.995,4.021,4.021,4.021,4.021,4.021,4.021,4.021,4.021,4.021,4.021,4.021,4.021,4.021,3.995,3.995,3.969,3.969,3.969,3.969,3.969,3.969,3.969,3.969,3.995,3.995,3.995,3.995,3.995,3.995,3.995,3.995,3.995,3.995,3.995,3.995,4.021,3.995,3.995,3.995,3.995,3.995,3.995,3.995,3.995,3.995,3.995,3.995,3.995,4.021,4.021,3.995,3.995,3.995,3.995,3.995,3.995,3.995,3.995,3.995,3.995,3.995,3.969,3.969,3.969,3.969,3.969,3.969,3.969,3.969,3.969,3.969,3.969,3.969,3.969,3.969,3.969,3.969,3.969,3.969,3.969,3.995,3.995,3.995,4.021,4.021,4.021,4.021,4.021,4.021,4.021,4.021,4.047,4.047,4.047,4.047,4.047,4.047,4.047,4.047,4.047,4.021,4.021,4.021,4.021,4.021,4.021,3.995,3.995,3.995,3.969,3.969,3.969,3.969,3.969,3.969,3.969,3.969,3.969,3.969,3.969,3.969,3.995,3.995,4.021,4.021,4.047,4.047,4.047,4.047,4.047,4.074,4.074,4.074,4.074,4.074,4.074,4.074,4.074,4.074,4.074,4.074,4.074,4.074,4.074,4.047,4.047,4.047,4.047,4.047,4.047,4.047,4.047,4.047,4.047,4.047,4.047,4.021,4.021,3.995,3.995,3.995,3.995,3.969,3.969,3.944,3.944,3.919,3.894,3.87,3.822,3.776,3.73,3.686,3.664,3.621,3.6,3.559,3.518,3.498,3.459,3.44,3.402,3.347,3.311,3.242,3.192,3.175,3.175,3.159,3.159,3.143,3.143,3.127,3.143,3.143,3.127,3.081,3.05,3.006,2.977,2.921,2.867,2.815,2.777,2.752,2.728,2.692,2.681,2.669,2.658,2.635,2.624,2.613,2.602,2.591,2.58,2.58,2.569,2.569,2.559,2.559,2.559,2.548,2.548,2.538,2.538,2.538,2.538,2.538,2.527,2.527,2.527,2.517,2.517,2.507,2.497,2.487,2.477,2.477,2.467,2.457,2.447,2.438,2.428,2.419,2.4,2.382,2.372,2.354,2.337,2.319,2.293,2.268,2.235,2.211,2.188,2.165,2.143,2.128,2.113,2.106,2.099,2.092,2.085,2.085,2.078,2.064,2.057,2.05,2.044,2.037,2.03,2.024,2.017,2.01,2.01,2.004,2.004,1.997,1.985,1.972,1.966,1.96,1.953,1.947,1.941,1.935,1.929,1.923,1.923,1.917,1.905,1.899,1.894,1.888,1.888,1.882,1.876,1.843,1.811,1.779,0,1.72,1.692,1.665,1.638,1.634,1.629,1.625,1.617,1.608,1.6,1.588,1.576,1.564,1.556,1.544,1.533,1.521,1.514,1.507,1.499,1.492,1.485,1.478,1.471,1.464,1.457,1.45,1.447,1.443,1.437,1.433,1.43,1.427,1.423,1.42,1.417,1.414,1.41,1.404,1.401,1.395,1.388,1.382,1.376,1.37,1.364,1.358,1.352,1.349,1.346,1.34,1.337,1.334,1.332,1.326,1.32,1.317,1.312,1.309,1.304,1.298,1.293,1.285,1.279,1.271,1.266,1.264,1.259,1.253,1.251,1.248,1.246,1.243,1.241,1.238,1.236,1.233,1.231,1.226,1.221,1.217,1.212,1.209,1.205,1.198,1.193,1.188,1.184,1.182,1.179,1.177,1.175,1.175,1.173,1.173,1.171,1.166,1.16,1.151,1.145,1.136,1.128
1.642,1.651,1.656,1.665,1.669,1.674,1.674,1.683,1.687,1.696,1.706,1.715,1.72,1.73,1.739,1.749,1.754,1.764,1.774,1.779,1.79,1.8,1.8,1.811,1.816,1.821,1.832,1.837,1.848,1.854,1.865,1.882,1.894,1.917,1.941,1.966,1.991,2.017,2.044,2.064,2.078,2.092,2.099,2.106,2.106,2.121,2.128,2.135,2.143,2.158,2.173,2.188,2.211,2.235,2.252,2.285,2.328,2.363,2.4,2.428,2.457,2.477,2.497,2.507,2.538,2.559,2.58,2.602,2.613,2.624,2.646,2.658,2.669,2.692,2.704,2.728,2.752,2.777,2.853,2.921,3.021,3.127,3.242,3.365,3.498,3.642,3.753,3.799,3.822,3.87,3.919,3.944,3.969,3.995,3.995,3.995,3.995,3.995,3.995,3.995,3.995,3.969,3.969,3.969,3.969,3.944,3.944,3.944,3.944,3.944,3.969,3.969,3.969,3.969,3.969,3.969,3.969,3.969,3.995,3.995,3.995,3.995,3.995,4.021,4.021,4.021,4.021,4.021,4.021,4.021,4.021,4.021,4.021,4.021,4.021,4.021,4.021,4.021,4.021,4.021,3.995,3.995,3.995,3.995,3.995,3.995,3.995,3.995,3.995,3.995,3.995,4.021,4.021,4.021,4.021,4.021,4.021,4.021,4.021,4.021,4.021,4.021,4.021,3.995,3.995,3.995,3.969,3.969,3.969,3.969,3.995,3.995,3.995,3.995,3.995,3.995,3.995,3.995,3.995,3.995,3.995,3.995,3.995,3.995,3.995,3.995,3.995,3.995,3.995,3.969,3.969,3.969,3.969,3.969,3.969,3.969,3.969,3.995,3.995,3.995,3.995,3.995,3.995,3.995,3.995,3.995,4.021,4.021,4.021,4.021,4.021,4.021,4.021,4.021,4.021,4.021,4.047,4.047,4.047,4.047,4.047,4.047,4.047,4.047,4.047,4.047,4.047,4.021,4.021,4.021,4.021,4.021,4.021,4.021,3.995,3.995,3.995,3.995,3.995,3.969,3.969,3.969,3.969,3.969,3.969,3.995,3.995,3.995,4.021,4.021,4.047,4.047,4.047,4.047,4.047,4.074,4.074,4.074,4.074,4.074,4.074,4.074,4.074,4.074,4.074,4.074,4.074,4.074,4.074,4.074,4.074,4.074,4.074,4.074,4.074,4.074,4.074,4.074,4.074,4.047,4.047,4.047,4.047,4.047,4.021,4.021,3.995,3.995,3.995,3.969,3.969,3.944,3.919,3.894,3.846,3.822,3.753,3.73,3.686,3.664,3.621,3.6,3.559,3.538,3.498,3.479,3.44,3.402,3.365,3.311,3.242,3.192,3.159,3.159,3.143,3.143,3.127,3.127,3.127,3.143,3.143,3.127,3.081,3.035,3.006,2.963,2.907,2.853,2.802,2.764,2.728,2.716,2.692,2.669,2.658,2.646,2.635,2.624,2.613,2.602,2.591,2.58,2.58,2.569,2.559,2.559,2.559,2.559,2.548,2.538,2.538,2.538,2.538,2.538,2.538,2.527,2.527,2.517,2.517,2.507,2.497,2.487,2.487,2.477,2.467,2.457,2.447,2.447,2.428,2.419,2.409,2.391,2.372,2.354,2.337,2.319,2.302,2.276,2.252,2.227,2.196,2.173,2.158,2.135,2.121,2.113,2.106,2.106,2.099,2.099,2.092,2.085,2.071,2.064,2.057,2.05,2.037,2.03,2.024,2.017,2.017,2.01,2.004,2.004,1.997,1.985,1.978,1.966,1.96,1.953,1.947,1.941,1.935,1.929,1.923,1.923,1.917,1.905,1.899,1.888,1.882,1.882,1.876,1.871,1.843,1.811,1.779,0,1.72,1.692,1.665,1.642,1.634,1.629,1.625,1.617,1.608,1.6,1.592,1.58,1.568,1.556,1.544,1.536,1.525,1.518,1.51,1.503,1.496,1.488,1.481,1.474,1.467,1.46,1.454,1.45,1.443,1.437,1.433,1.43,1.427,1.423,1.42,1.417,1.414,1.414,1.407,1.404,1.398,1.395,1.388,1.382,1.373,1.367,1.361,1.358,1.352,1.346,1.343,1.337,1.334,1.332,1.329,1.323,1.32,1.315,1.312,1.306,1.298,1.293,1.287,1.279,1.274,1.269,1.264,1.259,1.256,1.251,1.248,1.246,1.243,1.241,1.238,1.236,1.233,1.231,1.226,1.221,1.219,1.214,1.209,1.205,1.2,1.193,1.188,1.184,1.182,1.179,1.177,1.175,1.175,1.173,1.173,1.171,1.166,1.16,1.151,1.145,1.136,1.128
1.647,1.651,1.66,1.669,1.678,1.683,1.687,1.692,1.701,1.706,1.715,1.725,1.734,1.744,1.754,1.764,1.769,1.774,1.779,1.79,1.795,1.8,1.811,1.811,1.816,1.827,1.832,1.843,1.848,1.859,1.871,1.888,1.905,1.929,1.947,1.978,1.997,2.03,2.05,2.071,2.085,2.092,2.099,2.099,2.113,2.121,2.121,2.128,2.135,2.15,2.165,2.188,2.204,2.227,2.252,2.285,2.319,2.354,2.4,2.419,2.447,2.467,2.487,2.497,2.527,2.548,2.569,2.591,2.602,2.613,2.635,2.646,2.669,2.681,2.704,2.728,2.752,2.777,2.827,2.907,3.021,3.127,3.242,3.347,3.498,3.642,3.753,3.799,3.846,3.87,3.919,3.944,3.995,4.021,4.021,4.021,4.021,4.021,4.021,3.995,3.995,3.995,3.995,3.969,3.969,3.969,3.969,3.969,3.969,3.969,3.969,3.995,3.995,3.995,3.995,3.995,3.995,4.021,4.021,4.021,4.021,4.021,4.021,4.021,4.021,4.021,4.021,4.021,4.047,4.047,4.047,4.047,4.047,4.047,4.047,4.047,4.021,4.021,4.021,4.021,4.021,4.021,4.021,4.021,4.021,4.021,4.021,4.021,4.021,4.047,4.047,4.047,4.047,4.047,4.047,4.047,4.047,4.021,4.021,4.021,4.021,4.021,4.021,3.995,3.995,3.995,3.969,3.969,3.969,3.969,3.969,3.995,3.995,3.995,3.995,3.995,3.995,3.995,4.021,3.995,3.995,3.995,3.995,3.995,3.995,3.995,3.995,3.995,3.995,3.995,3.995,3.995,3.995,3.995,3.995,3.995,3.995,3.995,4.021,4.021,4.021,4.021,4.021,4.021,4.021,4.021,4.021,4.021,4.021,4.021,4.021,4.021,4.021,4.021,4.021,4.021,4.047,4.047,4.047,4.047,4.047,4.047,4.047,4.047,4.047,4.047,4.047,4.047,4.047,4.021,4.021,4.021,4.021,4.021,4.021,4.021,4.021,4.021,3.995,3.995,3.995,3.995,3.995,3.995,3.995,4.021,4.021,4.021,4.021,4.047,4.047,4.047,4.047,4.074,4.074,4.074,4.074,4.074,4.074,4.074,4.074,4.074,4.074,4.074,4.101,4.101,4.101,4.101,4.101,4.101,4.101,4.128,4.128,4.128,4.128,4.128,4.128,4.128,4.128,4.101,4.101,4.101,4.074,4.074,4.047,4.047,4.021,4.021,3.995,3.969,3.969,3.919,3.919,3.87,3.846,3.799,3.753,3.73,3.686,3.664,3.621,3.6,3.579,3.559,3.538,3.498,3.479,3.44,3.402,3.347,3.259,3.225,3.175,3.143,3.143,3.127,3.112,3.112,3.112,3.127,3.127,3.112,3.081,3.021,2.977,2.949,2.893,2.827,2.789,2.752,2.716,2.704,2.681,2.658,2.646,2.646,2.635,2.624,2.613,2.602,2.591,2.58,2.58,2.569,2.559,2.559,2.559,2.548,2.548,2.538,2.538,2.538,2.538,2.538,2.538,2.538,2.527,2.517,2.517,2.507,2.497,2.487,2.477,2.467,2.457,2.457,2.447,2.438,2.428,2.419,2.4,2.382,2.363,2.345,2.328,2.31,2.285,2.26,2.235,2.211,2.188,2.173,2.15,2.135,2.128,2.121,2.113,2.113,2.106,2.106,2.099,2.085,2.078,2.071,2.064,2.05,2.037,2.03,2.024,2.017,2.017,2.01,2.01,2.004,1.997,1.991,1.978,1.966,1.96,1.953,1.947,1.941,1.935,1.929,1.923,1.917,1.911,1.905,1.899,1.888,1.882,1.876,1.871,1.865,1.837,1.811,1.779,0,1.725,1.696,1.669,1.647,1.634,1.629,1.625,1.617,1.608,1.6,1.592,1.58,1.568,1.56,1.548,1.54,1.529,1.521,1.514,1.507,1.499,1.492,1.488,1.478,1.471,1.464,1.457,1.454,1.447,1.44,1.437,1.433,1.43,1.427,1.423,1.42,1.417,1.414,1.414,1.41,1.404,1.398,1.391,1.385,1.379,1.373,1.367,1.361,1.355,1.349,1.343,1.34,1.334,1.332,1.329,1.323,1.32,1.317,1.315,1.306,1.304,1.295,1.29,1.282,1.277,1.269,1.264,1.261,1.256,1.251,1.248,1.246,1.243,1.243,1.241,1.238,1.236,1.231,1.229,1.224,1.219,1.214,1.209,1.205,1.2,1.193,1.188,1.186,1.182,1.182,1.177,1.175,1.175,1.173,1.173,1.171,1.168,1.16,1.153,1.145,1.138,1.13
1.647,1.66,1.669,1.678,1.683,1.692,1.696,1.701,1.711,1.72,1.73,1.734,1.744,1.754,1.769,1.774,1.779,1.784,1.795,1.795,1.805,1.811,1.816,1.821,1.827,1.832,1.843,1.854,1.859,1.871,1.882,1.899,1.917,1.941,1.966,1.991,2.01,2.037,2.057,2.078,2.085,2.099,2.099,2.106,2.113,2.121,2.128,2.128,2.135,2.143,2.165,2.18,2.204,2.227,2.252,2.276,2.31,2.345,2.382,2.409,2.428,2.447,2.467,2.487,2.507,2.527,2.559,2.569,2.591,2.602,2.624,2.635,2.658,2.681,2.704,2.728,2.752,2.777,2.827,2.907,3.006,3.112,3.225,3.347,3.479,3.642,3.776,3.822,3.846,3.894,3.944,3.969,3.995,4.021,4.047,4.047,4.021,4.021,4.021,4.021,4.021,3.995,3.995,3.995,3.995,3.995,3.995,3.995,3.995,3.995,3.995,3.995,4.021,4.021,4.021,4.021,4.021,4.021,4.021,4.021,4.021,4.021,4.047,4.047,4.047,4.047,4.047,4.047,4.047,4.074,4.074,4.047,4.047,4.047,4.047,4.047,4.047,4.047,4.047,4.021,4.021,4.021,4.021,4.021,4.021,4.021,4.047,4.047,4.047,4.047,4.047,4.047,4.047,4.047,4.047,4.047,4.047,4.047,4.047,4.021,4.021,4.021,4.021,3.995,3.995,3.995,3.969,3.969,3.969,3.969,3.969,3.995,3.995,3.995,3.995,3.995,3.995,4.021,4.021,4.021,4.021,4.021,4.021,3.995,3.995,3.995,3.995,3.995,3.995,3.995,3.995,3.995,3.995,3.995,4.021,4.021,4.021,4.021,4.021,4.021,4.021,4.021,4.021,4.021,4.021,4.021,4.021,4.021,4.021,4.021,4.021,4.021,4.021,4.021,4.021,4.021,4.021,4.021,4.047,4.047,4.047,4.047,4.047,4.047,4.047,4.047,4.047,4.047,4.047,4.047,4.047,4.047,4.047,4.021,4.021,4.021,4.021,4.021,4.021,4.021,4.021,4.021,4.021,4.021,4.021,4.021,4.021,4.047,4.047,4.047,4.047,4.047,4.074,4.074,4.074,4.074,4.074,4.074,4.074,4.074,4.074,4.074,4.101,4.101,4.101,4.101,4.101,4.101,4.128,4.128,4.156,4.156,4.156,4.156,4.156,4.156,4.156,4.156,4.156,4.156,4.156,4.128,4.101,4.101,4.074,4.074,4.047,4.021,4.021,3.995,3.969,3.919,3.919,3.87,3.846,3.799,3.753,3.73,3.686,3.664,3.621,3.6,3.579,3.579,3.559,3.518,3.498,3.479,3.44,3.365,3.276,3.225,3.175,3.127,3.127,3.096,3.096,3.081,3.081,3.096,3.096,3.096,3.065,3.021,2.977,2.935,2.88,2.815,2.789,2.74,2.716,2.692,2.669,2.658,2.646,2.646,2.624,2.624,2.613,2.602,2.591,2.58,2.58,2.569,2.559,2.548,2.548,2.548,2.548,2.538,2.548,2.548,2.548,2.548,2.548,2.538,2.527,2.527,2.517,2.507,2.497,2.487,2.477,2.467,2.457,2.457,2.447,2.438,2.428,2.409,2.4,2.372,2.354,2.337,2.319,2.293,2.268,2.244,2.227,2.204,2.188,2.173,2.158,2.143,2.128,2.121,2.121,2.113,2.113,2.113,2.099,2.092,2.085,2.078,2.071,2.057,2.044,2.037,2.024,2.024,2.024,2.017,2.01,2.01,1.997,1.991,1.978,1.972,1.966,1.953,1.947,1.947,1.935,1.929,1.923,1.917,1.911,1.899,1.894,1.882,1.876,1.871,1.865,1.859,1.832,1.805,1.779,1.749,1.725,1.696,1.669,1.647,1.634,1.625,1.621,1.617,1.608,1.6,1.592,1.584,1.572,1.56,1.552,1.54,1.533,1.525,1.518,1.51,1.507,1.499,1.492,1.485,1.478,1.471,1.464,1.457,1.454,1.447,1.44,1.437,1.433,1.43,1.427,1.427,1.423,1.42,1.417,1.414,1.41,1.407,1.401,1.391,1.385,1.379,1.373,1.364,1.358,1.352,1.346,1.34,1.337,1.332,1.329,1.326,1.323,1.32,1.315,1.312,1.304,1.298,1.293,1.285,1.277,1.271,1.266,1.261,1.256,1.253,1.251,1.246,1.243,1.243,1.241,1.238,1.236,1.231,1.229,1.224,1.217,1.214,1.209,1.205,1.198,1.193,1.188,1.186,1.184,1.182,1.179,1.177,1.175,1.173,1.173,1.171,1.166,1.16,1.153,1.147,1.138,1.132
1.656,1.669,1.678,1.683,1.692,1.696,1.701,1.711,1.72,1.73,1.739,1.749,1.759,1.769,1.779,1.784,1.79,1.795,1.8,1.805,1.811,1.816,1.821,1.827,1.837,1.843,1.854,1.865,1.871,1.882,1.899,1.911,1.935,1.96,1.978,2.004,2.024,2.044,2.064,2.078,2.092,2.099,2.106,2.106,2.113,2.121,2.121,2.135,2.135,2.143,2.158,2.173,2.204,2.219,2.244,2.276,2.302,2.337,2.372,2.391,2.409,2.428,2.447,2.467,2.497,2.517,2.548,2.559,2.58,2.591,2.613,2.635,2.658,2.681,2.692,2.716,2.752,2.777,2.827,2.907,3.006,3.112,3.242,3.347,3.479,3.621,3.776,3.822,3.87,3.919,3.944,3.995,3.995,4.021,4.047,4.047,4.047,4.047,4.047,4.021,4.021,4.021,4.021,3.995,3.995,3.995,3.995,3.995,3.995,3.995,4.021,4.021,4.021,4.021,4.021,4.047,4.047,4.047,4.047,4.047,4.047,4.047,4.047,4.047,4.074,4.074,4.074,4.074,4.074,4.074,4.074,4.074,4.074,4.047,4.047,4.047,4.047,4.047,4.047,4.047,4.047,4.047,4.047,4.047,4.047,4.047,4.047,4.047,4.074,4.074,4.074,4.074,4.074,4.074,4.074,4.074,4.047,4.047,4.047,4.047,4.021,4.021,4.021,4.021,3.995,3.995,3.969,3.969,3.969,3.969,3.969,3.995,3.995,3.995,4.021,4.021,4.021,4.021,4.021,4.021,4.021,4.021,4.021,4.021,4.021,4.021,4.021,4.021,4.021,4.021,4.021,4.021,4.021,4.021,4.021,4.021,4.021,4.047,4.047,4.047,4.047,4.047,4.047,4.047,4.047,4.021,4.021,4.021,4.021,4.021,4.021,4.021,4.021,4.021,4.021,4.021,4.021,4.021,4.021,4.021,4.021,4.021,4.047,4.047,4.047,4.047,4.047,4.047,4.047,4.047,4.047,4.047,4.047,4.047,4.047,4.047,4.047,4.047,4.021,4.021,4.021,4.021,4.021,4.021,4.021,4.047,4.047,4.047,4.047,4.047,4.047,4.074,4.074,4.074,4.074,4.074,4.074,4.101,4.101,4.101,4.101,4.101,4.101,4.101,4.128,4.128,4.128,4.128,4.128,4.156,4.184,4.184,4.184,4.184,4.184,4.184,4.212,4.184,4.184,4.184,4.184,4.156,4.128,4.101,4.101,4.074,4.047,4.047,4.021,3.995,3.944,3.919,3.894,3.87,3.822,3.799,3.753,3.708,3.686,3.664,3.621,3.621,3.579,3.579,3.559,3.538,3.538,3.498,3.479,3.402,3.311,3.242,3.175,3.127,3.112,3.081,3.065,3.05,3.05,3.065,3.065,3.065,3.065,3.006,2.963,2.921,2.867,2.815,2.764,0,2.704,2.692,2.669,2.658,2.646,2.646,2.635,2.624,2.613,2.602,2.591,2.58,2.569,2.559,2.548,2.548,2.548,2.548,2.548,2.548,2.548,2.548,2.559,2.559,2.559,2.548,2.538,2.527,2.517,2.507,2.497,2.487,2.467,2.467,2.457,2.457,2.447,2.438,2.419,2.409,2.391,2.372,2.345,2.328,2.302,2.276,2.26,2.235,2.219,2.204,2.18,2.173,2.158,2.143,2.135,2.128,2.128,2.121,2.121,2.113,2.106,2.099,2.092,2.078,2.071,2.064,2.05,2.044,2.037,2.03,2.024,2.017,2.017,2.01,1.997,1.991,1.978,1.972,1.96,1.953,1.947,1.947,1.935,1.929,1.923,1.917,1.911,1.899,1.888,1.876,1.871,1.865,1.859,1.854,1.832,1.8,1.774,1.749,1.725,1.696,1.674,1.647,1.634,1.621,1.617,1.617,1.608,1.6,1.592,1.584,1.572,1.564,1.556,1.544,1.536,1.529,1.525,1.518,1.514,1.507,1.496,1.492,1.485,1.478,1.471,1.464,1.457,1.45,1.447,1.443,1.437,1.437,1.433,1.43,1.427,1.423,1.423,1.423,1.417,1.414,1.407,1.401,1.391,1.385,1.376,1.37,1.361,1.355,1.349,1.343,1.337,1.334,1.332,1.326,1.323,1.32,1.317,1.312,1.306,1.301,1.295,1.287,1.279,1.274,1.266,1.264,1.256,1.253,1.251,1.246,1.246,1.243,1.241,1.238,1.233,1.231,1.226,1.221,1.217,1.212,1.207,1.202,1.198,1.193,1.188,1.186,1.184,1.182,1.179,1.177,1.175,1.175,1.173,1.171,1.168,1.162,1.153,1.147,1.14,1.134
1.66,1.674,1.683,1.692,1.701,1.706,1.711,1.72,1.73,1.739,1.749,1.759,1.764,1.774,1.784,1.795,1.795,1.8,1.805,1.811,1.816,1.821,1.827,1.832,1.837,1.848,1.865,1.876,1.888,1.899,1.917,1.935,1.96,1.978,2.004,2.024,2.037,2.057,2.078,2.085,2.099,2.106,2.106,2.113,2.121,2.121,2.128,2.135,2.135,2.143,2.158,2.165,2.188,2.211,2.235,2.268,2.293,2.319,2.354,2.382,2.4,2.409,2.438,2.447,2.487,2.507,2.538,2.559,2.569,2.58,2.602,2.624,2.646,2.669,2.692,2.716,2.74,2.764,2.815,2.907,3.006,3.112,3.225,3.347,3.479,3.621,3.776,3.822,3.87,3.919,3.944,3.995,4.021,4.021,4.047,4.047,4.047,4.047,4.047,4.047,4.021,4.021,4.021,4.021,4.021,4.021,4.021,4.021,4.021,4.021,4.021,4.047,4.047,4.047,4.047,4.047,4.047,4.047,4.047,4.047,4.047,4.047,4.047,4.047,4.074,4.074,4.074,4.074,4.074,4.074,4.074,4.074,4.074,4.074,4.074,4.074,4.074,4.047,4.047,4.047,4.047,4.074,4.047,4.047,4.074,4.074,4.074,4.074,4.101,4.101,4.101,4.101,4.101,4.101,4.101,4.074,4.074,4.074,4.047,4.047,4.047,4.021,4.021,4.021,4.021,3.995,3.995,3.995,3.995,3.995,3.995,3.995,3.995,4.021,4.021,4.021,4.021,4.021,4.021,4.021,4.021,4.021,4.021,4.021,4.021,4.021,4.021,4.021,4.021,4.021,4.021,4.021,4.047,4.047,4.047,4.047,4.074,4.074,4.074,4.074,4.074,4.074,4.074,4.074,4.047,4.047,4.047,4.047,4.021,4.021,4.021,4.021,4.021,4.021,4.021,4.021,4.021,4.021,4.021,4.021,4.021,4.021,4.021,4.047,4.047,4.047,4.047,4.047,4.047,4.074,4.074,4.074,4.074,4.074,4.074,4.074,4.074,4.074,4.047,4.047,4.047,4.047,4.047,4.047,4.047,4.047,4.047,4.047,4.047,4.074,4.074,4.074,4.074,4.074,4.074,4.074,4.101,4.101,4.101,4.101,4.101,4.101,4.101,4.101,4.128,4.128,4.156,4.156,4.156,4.184,4.184,4.184,4.212,4.212,4.212,4.212,4.241,4.212,4.212,4.212,4.184,4.184,4.156,4.128,4.101,4.101,4.074,4.047,4.021,3.969,3.944,3.919,3.894,3.846,3.822,3.776,3.753,3.708,3.686,3.664,3.642,3.621,3.579,3.6,3.579,3.559,3.538,3.538,3.479,3.421,3.329,3.259,3.192,3.127,3.112,3.065,3.05,3.035,3.05,3.05,3.065,3.065,3.05,2.991,2.963,2.907,2.853,2.815,2.764,2.728,2.704,2.681,2.669,2.658,2.646,2.646,2.635,2.624,2.613,2.602,2.591,2.58,2.569,2.548,2.548,2.538,2.548,2.548,2.548,2.548,2.548,2.559,2.559,2.559,2.559,2.559,2.538,2.527,2.517,2.507,2.497,2.487,2.467,2.467,2.467,2.457,2.447,2.438,2.419,2.4,2.382,2.363,2.345,2.31,2.293,2.276,2.26,2.235,2.219,2.204,2.188,2.173,2.158,2.15,2.135,2.135,2.128,2.128,2.121,2.121,2.106,2.099,2.092,2.085,2.078,2.064,2.057,2.05,2.037,2.037,2.03,2.024,2.017,2.01,2.004,1.991,1.978,1.966,1.96,1.953,1.947,1.947,1.935,1.929,1.923,1.911,1.905,1.894,1.882,1.871,1.859,1.854,1.848,1.843,1.827,1.795,1.769,1.744,1.72,1.696,1.669,1.647,1.629,1.613,1.613,1.613,1.604,1.6,1.592,1.584,1.576,1.568,1.56,1.548,1.536,1.533,1.529,1.521,1.518,1.51,1.503,1.499,1.492,1.485,1.474,1.471,1.464,1.457,1.45,1.447,1.44,1.437,1.437,1.433,1.433,1.43,1.43,1.427,1.423,1.42,1.414,1.407,1.398,1.391,1.379,1.373,1.364,1.355,1.349,1.343,1.337,1.334,1.332,1.326,1.323,1.32,1.317,1.312,1.306,1.301,1.295,1.287,1.282,1.274,1.269,1.264,1.259,1.253,1.251,1.248,1.246,1.241,1.238,1.236,1.233,1.229,1.224,1.219,1.214,1.209,1.205,1.202,1.198,1.193,1.188,1.186,1.184,1.182,1.179,1.177,1.175,1.175,1.173,1.171,1.168,1.162,1.155,1.149,1.142,1.136
1.669,1.678,1.687,1.696,1.701,1.711,1.715,1.725,1.734,1.744,1.754,1.764,1.769,1.779,1.79,1.8,1.8,1.8,1.811,1.811,1.821,1.827,1.832,1.837,1.848,1.859,1.876,1.894,1.899,1.917,1.935,1.96,1.985,2.004,2.017,2.037,2.05,2.071,2.085,2.099,2.106,2.106,2.106,2.113,2.113,2.128,2.128,2.128,2.128,2.135,2.15,2.165,2.188,2.211,2.235,2.26,2.285,2.319,2.345,2.363,2.391,2.4,2.419,2.447,2.467,2.497,2.527,2.548,2.559,2.58,2.602,2.624,2.635,2.658,2.681,2.716,2.728,2.764,2.815,2.88,2.991,3.112,3.225,3.347,3.479,3.621,3.776,3.846,3.894,3.944,3.969,3.995,4.021,4.047,4.047,4.074,4.074,4.074,4.074,4.074,4.047,4.047,4.047,4.047,4.047,4.047,4.047,4.021,4.021,4.047,4.047,4.047,4.047,4.047,4.047,4.047,4.047,4.047,4.047,4.047,4.047,4.047,4.047,4.047,4.074,4.074,4.074,4.101,4.101,4.101,4.101,4.101,4.101,4.101,4.101,4.101,4.074,4.074,4.074,4.074,4.074,4.074,4.074,4.074,4.074,4.101,4.101,4.101,4.101,4.101,4.128,4.128,4.128,4.101,4.101,4.101,4.101,4.101,4.074,4.074,4.047,4.047,4.021,4.021,4.021,4.021,4.021,3.995,3.995,3.995,4.021,4.021,4.021,4.021,4.021,4.021,4.021,4.021,4.021,4.047,4.047,4.047,4.047,4.047,4.047,4.047,4.047,4.047,4.047,4.047,4.047,4.047,4.074,4.074,4.074,4.074,4.074,4.074,4.074,4.074,4.074,4.074,4.074,4.074,4.074,4.074,4.047,4.047,4.047,4.047,4.021,4.021,4.021,4.021,4.021,4.021,4.021,4.021,4.021,4.021,4.021,4.021,4.021,4.047,4.047,4.047,4.047,4.074,4.074,4.074,4.074,4.074,4.074,4.074,4.074,4.074,4.074,4.074,4.074,4.074,4.074,4.074,4.074,4.074,4.047,4.047,4.074,4.074,4.074,4.074,4.074,4.074,4.074,4.101,4.101,4.101,4.101,4.101,4.101,4.101,4.128,4.128,4.128,4.128,4.156,4.156,4.156,4.156,4.184,4.212,4.212,4.212,4.212,4.241,4.241,4.241,4.241,4.241,4.241,4.241,4.212,4.212,4.184,4.128,4.128,4.101,4.074,4.047,3.995,3.969,3.944,3.919,3.87,3.846,3.799,3.776,3.73,3.708,3.686,3.642,3.642,3.6,3.6,3.6,3.6,3.579,3.579,3.538,3.518,3.44,3.347,3.276,3.192,3.127,3.096,3.05,3.035,3.021,3.021,3.035,3.05,3.035,3.035,2.977,2.963,2.893,2.84,2.789,2.752,2.716,2.692,2.669,2.658,2.646,2.646,2.646,2.635,2.624,2.613,2.602,2.591,2.58,2.569,2.548,2.538,2.538,2.548,2.548,2.548,2.548,2.548,2.559,2.559,2.569,2.559,2.559,2.548,2.527,2.517,2.507,2.497,2.487,2.477,2.467,2.467,2.467,2.457,2.438,2.419,2.4,2.372,2.354,2.337,2.302,2.285,2.268,2.252,2.235,2.219,2.204,2.188,2.18,2.165,2.15,2.143,2.135,2.128,2.128,2.128,2.121,2.113,2.106,2.099,2.085,2.078,2.071,2.064,2.05,2.044,2.037,2.037,2.024,2.017,2.01,1.997,1.985,1.978,1.966,1.96,1.953,1.947,1.941,1.935,1.929,1.923,1.917,1.905,1.894,1.882,1.871,1.859,1.848,1.843,1.837,1.821,1.795,1.769,1.744,1.72,1.692,1.669,1.642,1.625,1.608,1.608,1.604,1.6,1.596,1.588,1.58,1.576,1.568,1.56,1.552,1.54,1.536,1.533,1.529,1.521,1.518,1.51,1.507,1.499,1.492,1.485,1.478,1.467,1.46,1.457,1.45,1.447,1.443,1.44,1.437,1.437,1.437,1.433,1.433,1.43,1.423,1.417,1.41,1.401,1.395,1.382,1.373,1.364,1.355,1.349,1.343,1.337,1.334,1.329,1.326,1.323,1.32,1.317,1.312,1.309,1.301,1.295,1.29,1.282,1.277,1.269,1.264,1.259,1.253,1.251,1.248,1.243,1.241,1.238,1.236,1.231,1.226,1.221,1.217,1.212,1.209,1.205,1.2,1.195,1.191,1.188,1.186,1.184,1.182,1.179,1.177,1.177,1.175,1.175,1.173,1.168,1.162,1.157,1.151,1.145,1.138
1.669,1.683,1.692,1.701,1.711,1.715,1.72,1.73,1.739,1.749,1.754,1.764,1.769,1.784,1.79,1.795,1.8,1.805,1.805,1.811,1.821,1.827,1.832,1.843,1.854,1.871,1.888,1.905,1.917,1.935,1.953,1.978,2.004,2.024,2.037,2.05,2.064,2.078,2.092,2.099,2.106,2.106,2.106,2.113,2.113,2.121,2.121,2.121,2.128,2.128,2.143,2.15,2.173,2.196,2.211,2.235,2.268,2.302,2.319,2.345,2.363,2.382,2.4,2.428,2.447,2.477,2.507,2.527,2.548,2.569,2.591,2.613,2.635,2.646,2.669,2.704,2.728,2.752,2.802,2.88,2.991,3.096,3.225,3.347,3.459,3.621,3.776,3.846,3.894,3.944,3.969,3.995,4.047,4.047,4.074,4.074,4.074,4.074,4.074,4.074,4.074,4.074,4.074,4.074,4.074,4.074,4.047,4.047,4.047,4.047,4.047,4.047,4.047,4.047,4.047,4.047,4.047,4.047,4.047,4.047,4.047,4.047,4.047,4.047,4.074,4.074,4.101,4.101,4.101,4.101,4.101,4.101,4.101,4.101,4.101,4.101,4.101,4.101,4.101,4.074,4.074,4.074,4.074,4.074,4.101,4.101,4.101,4.101,4.128,4.128,4.128,4.128,4.128,4.128,4.128,4.128,4.101,4.101,4.101,4.101,4.074,4.074,4.047,4.021,4.021,4.021,4.021,4.021,4.021,4.021,4.021,4.021,4.021,4.021,4.047,4.047,4.047,4.047,4.047,4.047,4.047,4.047,4.047,4.047,4.047,4.047,4.047,4.074,4.074,4.074,4.074,4.074,4.074,4.074,4.101,4.101,4.101,4.101,4.101,4.101,4.101,4.101,4.101,4.074,4.074,4.074,4.074,4.074,4.047,4.047,4.047,4.021,4.021,4.021,4.021,4.021,4.021,4.021,4.021,4.021,4.021,4.021,4.021,4.047,4.047,4.047,4.074,4.074,4.074,4.074,4.074,4.074,4.074,4.074,4.074,4.101,4.101,4.074,4.074,4.074,4.074,4.074,4.074,4.074,4.074,4.074,4.074,4.074,4.074,4.074,4.074,4.074,4.101,4.101,4.101,4.101,4.101,4.128,4.128,4.128,4.128,4.128,4.128,4.156,4.156,4.156,4.156,4.184,4.184,4.212,4.241,4.241,4.241,4.241,4.27,4.27,4.27,4.27,4.27,4.241,4.241,4.212,4.184,4.156,4.128,4.101,4.074,4.021,4.021,3.969,3.944,3.919,3.87,3.822,3.799,3.776,3.73,3.686,3.642,3.642,3.642,3.6,3.6,3.6,3.6,3.6,3.6,3.579,3.538,3.479,3.384,3.294,3.208,3.127,3.112,3.035,3.021,3.006,3.006,3.021,3.035,3.021,3.035,2.977,2.949,2.893,2.84,2.789,2.752,2.728,2.692,2.669,2.658,2.646,2.658,2.646,2.646,2.624,2.613,2.602,2.591,2.58,2.559,2.548,2.538,2.538,2.548,2.538,2.548,2.548,2.548,2.559,2.559,2.569,2.559,2.548,2.538,2.527,2.527,2.517,2.497,2.487,2.477,2.477,2.477,2.467,2.457,2.438,2.428,2.4,2.372,2.354,2.328,2.302,2.276,2.26,2.244,2.227,2.211,2.204,2.188,2.18,2.165,2.158,2.15,2.135,2.128,2.128,2.121,2.121,2.113,2.106,2.099,2.092,2.085,2.078,2.064,2.057,2.05,2.044,2.037,2.03,2.017,2.004,1.997,1.991,1.978,1.966,1.953,1.947,1.947,1.941,1.935,1.929,1.923,1.911,1.905,1.894,1.876,1.865,1.854,1.843,1.837,1.832,1.816,1.79,1.764,1.739,1.715,1.692,1.669,1.642,1.621,1.608,1.604,1.6,1.596,1.592,1.588,1.58,1.572,1.568,1.56,1.552,1.544,1.54,1.533,1.533,1.525,1.521,1.518,1.51,1.503,1.496,1.488,1.481,1.474,1.467,1.46,1.454,1.45,1.447,1.443,1.44,1.437,1.437,1.437,1.433,1.43,1.423,1.417,1.41,1.404,1.395,1.382,1.373,1.364,1.355,1.349,1.343,1.337,1.334,1.329,1.326,1.323,1.32,1.317,1.312,1.309,1.304,1.298,1.29,1.285,1.277,1.271,1.266,1.261,1.256,1.251,1.248,1.243,1.241,1.238,1.233,1.229,1.224,1.219,1.214,1.209,1.207,1.202,1.198,1.193,1.191,1.186,1.186,1.184,1.184,1.182,1.179,1.177,1.177,1.175,1.173,1.171,1.164,1.16,1.153,1.149,1.142
1.665,1.678,1.692,1.701,1.706,1.715,1.72,1.73,1.734,1.749,1.759,1.764,1.769,1.779,1.784,1.79,1.795,1.8,1.805,1.811,1.821,1.832,1.837,1.843,1.859,1.876,1.899,1.917,1.935,1.953,1.972,1.997,2.024,2.037,2.05,2.064,2.071,2.085,2.092,2.099,2.106,2.106,2.106,2.106,2.113,2.113,2.113,2.121,2.121,2.121,2.135,2.143,2.165,2.18,2.196,2.219,2.244,2.268,2.302,2.328,2.345,2.363,2.382,2.409,2.438,2.467,2.497,2.527,2.548,2.569,2.591,2.613,2.624,2.646,2.669,2.692,2.716,2.74,2.802,2.88,2.991,3.096,3.225,3.347,3.459,3.621,3.776,3.846,3.894,3.944,3.995,3.995,4.047,4.074,4.074,4.101,4.101,4.101,4.101,4.101,4.101,4.101,4.101,4.101,4.101,4.074,4.074,4.074,4.074,4.074,4.074,4.074,4.047,4.047,4.047,4.047,4.047,4.047,4.021,4.021,4.021,4.047,4.074,4.074,4.074,4.101,4.101,4.128,4.128,4.128,4.128,4.128,4.128,4.128,4.128,4.128,4.128,4.128,4.101,4.101,4.101,4.101,4.101,4.101,4.128,4.128,4.128,4.128,4.156,4.156,4.156,4.156,4.156,4.156,4.156,4.156,4.156,4.128,4.128,4.128,4.101,4.101,4.074,4.074,4.047,4.047,4.047,4.047,4.047,4.047,4.047,4.047,4.074,4.074,4.074,4.074,4.074,4.074,4.074,4.101,4.101,4.101,4.074,4.101,4.101,4.101,4.101,4.101,4.101,4.101,4.101,4.101,4.101,4.101,4.101,4.128,4.128,4.128,4.128,4.128,4.128,4.101,4.101,4.101,4.101,4.101,4.101,4.101,4.074,4.074,4.047,4.047,4.047,4.047,4.047,4.021,4.021,4.021,4.021,4.021,4.021,4.021,4.047,4.047,4.047,4.074,4.074,4.074,4.074,4.101,4.101,4.101,4.101,4.101,4.101,4.128,4.128,4.101,4.101,4.101,4.074,4.074,4.074,4.074,4.074,4.074,4.074,4.074,4.074,4.101,4.101,4.101,4.101,4.101,4.101,4.128,4.128,4.128,4.128,4.128,4.128,4.156,4.156,4.156,4.156,4.156,4.184,4.184,4.212,4.212,4.241,4.241,4.27,4.27,4.27,4.27,4.3,4.27,4.27,4.241,4.241,4.212,4.184,4.156,4.128,4.101,4.047,4.047,3.995,3.969,3.944,3.894,3.846,3.822,3.776,3.753,3.708,3.686,3.642,3.642,3.621,3.6,3.6,3.6,3.6,3.6,3.6,3.579,3.538,3.479,3.402,3.311,3.242,3.143,3.112,3.035,3.021,3.006,3.006,3.006,3.035,3.021,3.021,2.949,2.935,2.893,2.84,2.802,2.752,2.716,2.692,2.681,2.669,2.658,2.658,2.646,2.646,2.624,2.613,2.591,2.58,2.569,2.559,2.548,2.538,2.538,2.538,2.538,2.548,2.538,2.548,2.559,2.559,2.559,2.559,2.548,2.538,2.527,2.527,2.517,2.507,2.497,2.487,2.487,2.477,2.477,2.467,2.438,2.419,2.4,2.372,2.345,2.319,2.293,2.268,2.252,2.235,2.227,2.219,2.204,2.196,2.18,2.165,2.158,2.15,2.135,2.128,2.121,2.121,2.113,2.113,2.099,2.099,2.092,2.085,2.078,2.071,2.057,2.05,2.044,2.037,2.024,2.01,2.004,1.997,1.985,1.972,1.96,1.953,1.947,1.947,1.941,1.935,1.929,1.923,1.917,1.905,1.894,1.876,1.859,1.854,1.843,1.832,1.827,1.816,1.79,1.759,1.739,1.715,1.692,1.665,1.642,1.617,1.6,1.604,1.6,1.596,1.588,1.584,1.58,1.572,1.568,1.56,1.552,1.544,1.54,1.536,1.533,1.529,1.525,1.521,1.518,1.51,1.503,1.496,1.488,1.481,1.471,1.467,1.46,1.454,1.45,1.447,1.443,1.44,1.44,1.437,1.437,1.43,1.427,1.417,1.41,1.401,1.391,1.385,1.373,1.364,1.355,1.349,1.343,1.337,1.334,1.329,1.326,1.323,1.323,1.317,1.315,1.309,1.304,1.298,1.29,1.285,1.279,1.271,1.266,1.261,1.256,1.251,1.248,1.243,1.241,1.236,1.231,1.226,1.221,1.217,1.212,1.207,1.202,1.198,1.195,1.191,1.188,1.186,1.184,1.184,1.182,1.179,1.179,1.179,1.177,1.177,1.173,1.171,1.166,1.162,1.155,1.151,1.147
1.66,1.674,1.683,1.696,1.706,1.711,1.715,1.725,1.734,1.739,1.749,1.759,1.764,1.769,1.774,1.784,1.784,1.79,1.795,1.805,1.811,1.827,1.837,1.843,1.865,1.882,1.905,1.929,1.947,1.966,1.991,2.017,2.037,2.05,2.057,2.064,2.071,2.085,2.092,2.099,2.099,2.099,2.099,2.099,2.106,2.106,2.113,2.121,2.121,2.128,2.135,2.143,2.158,2.165,2.188,2.204,2.227,2.252,2.276,2.302,2.328,2.345,2.372,2.4,2.428,2.457,2.497,2.517,2.548,2.559,2.591,2.613,2.624,2.635,2.658,2.681,2.716,2.74,2.789,2.867,2.963,3.081,3.208,3.329,3.459,3.6,3.776,3.846,3.894,3.944,3.995,4.021,4.047,4.074,4.101,4.128,4.128,4.128,4.156,4.156,4.156,4.156,4.128,4.128,4.128,4.128,4.101,4.101,4.074,4.074,4.074,4.074,4.074,4.074,4.047,4.047,4.047,4.021,4.021,4.021,4.047,4.047,4.074,4.074,4.101,4.128,4.128,4.156,4.156,4.184,4.184,4.156,4.156,4.156,4.156,4.156,4.156,4.156,4.128,4.128,4.128,4.128,4.128,4.128,4.128,4.128,4.156,4.156,4.156,4.184,4.184,4.184,4.184,4.184,4.184,4.184,4.184,4.184,4.156,4.156,4.156,4.128,4.101,4.101,4.101,4.101,4.074,4.074,4.074,4.101,4.101,4.101,4.101,4.128,4.128,4.128,4.128,4.128,4.128,4.128,4.128,4.128,4.128,4.128,4.128,4.128,4.128,4.128,4.128,4.128,4.128,4.128,4.128,4.128,4.128,4.156,4.156,4.156,4.156,4.128,4.128,4.128,4.128,4.128,4.128,4.128,4.128,4.101,4.101,4.101,4.074,4.074,4.074,4.074,4.047,4.047,4.047,4.047,4.047,4.047,4.047,4.047,4.074,4.074,4.074,4.074,4.101,4.101,4.101,4.128,4.128,4.128,4.128,4.128,4.128,4.156,4.128,4.128,4.128,4.101,4.101,4.101,4.101,4.101,4.101,4.101,4.101,4.101,4.101,4.101,4.101,4.128,4.128,4.128,4.128,4.128,4.128,4.156,4.156,4.156,4.156,4.156,4.184,4.184,4.184,4.184,4.212,4.212,4.212,4.241,4.241,4.241,4.27,4.27,4.27,4.27,4.27,4.27,4.27,4.241,4.241,4.212,4.212,4.184,4.128,4.101,4.074,4.047,3.995,3.969,3.944,3.894,3.846,3.822,3.776,3.73,3.686,3.664,3.642,3.621,3.621,3.6,3.6,3.6,3.6,3.6,3.579,3.559,3.538,3.479,3.402,3.329,3.242,3.159,3.112,3.05,3.021,3.006,3.006,3.006,3.021,3.021,3.021,2.949,2.935,2.88,2.84,2.802,2.752,2.728,2.704,2.681,2.681,2.658,2.658,2.646,2.646,2.613,2.602,2.58,2.569,2.559,2.548,2.538,2.538,2.527,2.538,2.538,2.548,2.538,2.548,2.548,2.559,2.559,2.548,2.538,2.538,2.527,2.527,2.517,2.507,2.507,2.497,2.487,2.487,2.477,2.467,2.447,2.428,2.4,2.372,2.345,2.319,2.293,2.268,2.252,2.235,2.227,2.219,2.211,2.196,2.18,2.165,2.158,2.15,2.135,2.128,2.121,2.113,2.113,2.106,2.099,2.092,2.092,2.085,2.078,2.071,2.064,2.057,2.05,2.044,2.03,2.017,2.01,1.997,1.985,1.972,1.96,1.947,1.941,1.941,1.941,1.935,1.929,1.923,1.911,1.905,1.894,1.876,1.859,1.848,1.837,1.832,1.821,1.816,1.784,1.759,1.739,1.715,1.692,1.665,1.642,1.617,1.6,1.6,1.6,1.592,1.588,1.584,1.58,1.572,1.568,1.564,1.552,1.548,1.544,1.536,1.536,1.533,1.529,1.525,1.518,1.514,1.507,1.499,1.492,1.485,1.478,1.471,1.464,1.457,1.454,1.447,1.443,1.44,1.44,1.437,1.433,1.43,1.423,1.417,1.407,1.401,1.391,1.382,1.373,1.361,1.355,1.349,1.343,1.337,1.334,1.329,1.326,1.323,1.323,1.317,1.312,1.309,1.304,1.295,1.29,1.285,1.277,1.271,1.266,1.261,1.256,1.251,1.246,1.241,1.238,1.233,1.229,1.224,1.219,1.214,1.209,1.205,1.2,1.195,1.193,1.191,1.188,1.186,1.184,1.184,1.182,1.182,1.179,1.179,1.179,1.177,1.175,1.173,1.168,1.162,1.16,1.153,1.149
1.656,1.669,1.674,1.687,1.692,1.701,1.711,1.715,1.725,1.73,1.734,1.744,1.749,1.754,1.759,1.764,1.769,1.774,1.784,1.795,1.805,1.821,1.827,1.837,1.859,1.882,1.911,1.935,1.953,1.978,1.997,2.024,2.044,2.05,2.057,2.071,2.071,2.078,2.085,2.092,2.092,2.092,2.092,2.099,2.099,2.106,2.106,2.113,2.113,2.121,2.128,2.135,2.15,2.158,2.173,2.196,2.219,2.235,2.268,2.293,2.31,2.337,2.363,2.391,2.419,2.447,2.487,2.517,2.538,2.559,2.591,2.613,2.624,2.635,2.646,2.681,2.704,2.728,2.777,2.853,2.949,3.065,3.192,3.311,3.459,3.6,3.776,3.846,3.894,3.944,3.995,4.047,4.074,4.101,4.128,4.156,4.156,4.156,4.156,4.156,4.156,4.156,4.156,4.156,4.156,4.156,4.128,4.128,4.101,4.101,4.101,4.101,4.074,4.074,4.047,4.047,4.047,4.047,4.047,4.047,4.047,4.047,4.074,4.101,4.128,4.156,4.156,4.184,4.184,4.184,4.212,4.212,4.212,4.184,4.184,4.184,4.184,4.156,4.156,4.156,4.156,4.156,4.128,4.128,4.156,4.156,4.156,4.184,4.184,4.184,4.212,4.212,4.212,4.212,4.212,4.212,4.212,4.212,4.212,4.184,4.184,4.156,4.156,4.128,4.128,4.128,4.128,4.128,4.128,4.128,4.156,4.156,4.156,4.156,4.184,4.184,4.184,4.184,4.184,4.184,4.184,4.184,4.184,4.184,4.184,4.184,4.184,4.184,4.184,4.184,4.184,4.184,4.184,4.184,4.184,4.184,4.184,4.156,4.156,4.156,4.156,4.156,4.156,4.156,4.156,4.156,4.156,4.128,4.128,4.128,4.101,4.101,4.101,4.101,4.101,4.101,4.074,4.074,4.074,4.074,4.074,4.074,4.074,4.101,4.101,4.128,4.128,4.128,4.128,4.128,4.156,4.156,4.156,4.156,4.156,4.156,4.156,4.156,4.156,4.156,4.128,4.128,4.128,4.128,4.128,4.128,4.128,4.128,4.128,4.128,4.128,4.128,4.156,4.156,4.156,4.156,4.156,4.184,4.184,4.184,4.184,4.184,4.212,4.212,4.212,4.212,4.212,4.241,4.241,4.241,4.27,4.27,4.27,4.27,4.27,4.27,4.3,4.27,4.27,4.27,4.241,4.241,4.212,4.184,4.128,4.101,4.074,4.047,4.021,3.969,3.919,3.894,3.846,3.799,3.753,3.708,3.686,3.642,3.621,3.621,3.621,3.6,3.6,3.6,3.579,3.579,3.579,3.559,3.538,3.479,3.421,3.329,3.259,3.192,3.143,3.065,3.035,3.021,3.021,3.021,3.035,3.021,3.021,2.949,2.935,2.88,2.84,2.789,0,2.716,2.704,2.681,2.669,2.658,2.658,2.646,2.635,2.613,2.591,2.58,2.569,2.559,2.538,2.538,2.527,2.527,2.538,2.538,2.538,2.538,2.538,2.548,2.548,2.548,2.548,2.538,2.527,2.527,2.517,2.517,2.517,2.507,2.497,2.497,2.487,2.487,2.467,2.447,2.428,2.4,2.372,2.345,2.319,2.293,2.268,2.252,2.235,2.227,2.219,2.211,2.196,2.18,2.165,2.158,2.15,2.135,2.128,2.121,2.113,2.106,2.106,2.099,2.092,2.085,2.085,2.078,2.071,2.064,2.057,2.05,2.044,2.03,2.017,2.01,1.997,1.985,1.972,1.96,1.947,1.941,1.941,1.941,1.935,1.929,1.923,1.911,1.899,1.894,1.876,1.859,1.848,1.837,1.827,1.821,1.811,1.79,1.759,1.739,1.715,1.692,1.665,1.642,1.617,1.6,1.596,1.596,1.592,1.588,1.588,1.58,1.576,1.568,1.564,1.556,1.548,1.544,1.54,1.536,1.536,1.533,1.529,1.521,1.518,1.514,1.507,1.499,1.492,1.481,1.474,1.467,1.46,1.454,1.45,1.443,1.44,1.437,1.437,1.433,1.427,1.423,1.414,1.407,1.398,1.388,1.379,1.37,1.361,1.355,1.349,1.343,1.337,1.334,1.329,1.326,1.323,1.32,1.317,1.312,1.306,1.301,1.295,1.29,1.282,1.277,1.269,1.264,1.259,1.253,1.248,1.246,1.241,1.236,1.233,1.226,1.221,1.217,1.214,1.209,1.205,1.2,1.195,1.193,1.191,1.188,1.186,1.186,1.184,1.182,1.182,1.179,1.179,1.179,1.177,1.175,1.173,1.171,1.164,1.162,1.157,1.153
1.651,1.656,1.669,1.674,1.683,1.687,1.696,1.701,1.711,1.715,1.72,1.725,1.73,1.739,1.744,1.749,1.754,1.759,1.769,1.779,1.795,1.805,1.821,1.827,1.854,1.882,1.905,1.929,1.947,1.972,1.991,2.01,2.037,2.044,2.05,2.057,2.064,2.071,2.078,2.085,2.085,2.085,2.085,2.092,2.092,2.092,2.099,2.106,2.113,2.113,2.121,2.135,2.143,2.15,2.165,2.188,2.204,2.235,2.252,2.276,2.293,2.328,2.354,2.382,2.409,2.447,2.487,2.517,2.538,2.569,2.591,2.624,2.635,2.646,2.658,2.669,2.704,2.716,2.764,2.84,2.935,3.065,3.192,3.311,3.459,3.6,3.776,3.846,3.894,3.944,3.995,4.047,4.074,4.101,4.156,4.156,4.184,4.184,4.184,4.184,4.212,4.212,4.212,4.184,4.184,4.184,4.156,4.156,4.128,4.128,4.128,4.101,4.074,4.074,4.074,4.074,4.047,4.047,4.047,4.047,4.074,4.074,4.101,4.128,4.156,4.184,4.184,4.212,4.212,4.241,4.241,4.241,4.241,4.212,4.212,4.212,4.184,4.184,4.184,4.156,4.156,4.156,4.156,4.156,4.156,4.156,4.156,4.184,4.184,4.212,4.212,4.212,4.241,4.241,4.241,4.241,4.241,4.241,4.241,4.241,4.212,4.212,4.184,4.184,4.184,4.184,4.156,4.156,4.184,4.184,4.184,4.212,4.212,4.212,4.212,4.212,4.212,4.212,4.212,4.212,4.212,4.212,4.212,4.212,4.212,4.212,4.212,4.212,4.212,4.212,4.212,4.212,4.212,4.212,4.212,4.212,4.212,4.212,4.184,4.184,4.184,4.184,4.184,4.184,4.156,4.156,4.156,4.156,4.156,4.156,4.156,4.128,4.128,4.128,4.128,4.128,4.128,4.128,4.128,4.128,4.128,4.128,4.128,4.128,4.128,4.156,4.156,4.156,4.156,4.184,4.184,4.184,4.184,4.184,4.184,4.184,4.184,4.184,4.184,4.184,4.156,4.156,4.156,4.156,4.156,4.156,4.156,4.156,4.156,4.156,4.156,4.156,4.156,4.184,4.184,4.184,4.184,4.212,4.212,4.212,4.212,4.212,4.212,4.241,4.241,4.241,4.241,4.241,4.27,4.27,4.27,4.27,4.27,4.27,4.27,4.27,4.27,4.27,4.27,4.241,4.241,4.212,4.212,4.184,4.156,4.128,4.074,4.047,4.021,3.969,3.919,3.87,3.846,3.776,3.73,3.686,3.664,3.621,3.6,3.6,3.6,3.579,3.6,3.6,3.6,3.559,3.579,3.538,3.518,3.459,3.402,3.347,3.276,3.208,3.159,3.096,3.065,3.035,3.035,3.035,3.05,3.035,3.021,2.963,2.935,2.893,2.84,2.802,0,2.716,2.692,2.681,2.669,2.658,2.646,2.646,2.624,2.602,2.591,2.569,2.559,2.548,2.538,2.527,2.527,2.527,2.538,2.538,2.538,2.538,2.538,2.538,2.538,2.538,2.538,2.527,2.527,2.527,2.517,2.517,2.517,2.507,2.497,2.497,2.497,2.487,2.467,2.447,2.419,2.4,2.372,2.345,2.319,2.293,2.268,2.252,2.235,2.227,2.211,2.204,2.196,2.18,2.165,2.158,2.15,2.135,2.128,2.121,2.113,2.106,2.099,2.092,2.092,2.085,2.078,2.071,2.071,2.064,2.057,2.05,2.037,2.03,2.01,2.004,1.997,1.985,1.972,1.96,1.947,1.941,1.941,1.941,1.935,1.929,1.923,1.911,1.899,1.888,1.876,1.859,1.848,1.832,1.832,1.821,1.811,1.79,1.764,1.739,1.715,1.692,1.665,1.642,1.617,1.6,1.596,1.6,1.596,1.592,1.588,1.58,1.576,1.568,1.564,1.556,1.548,1.544,1.54,1.536,1.536,1.533,1.529,1.525,1.521,1.514,1.507,1.503,1.492,1.485,1.474,1.467,1.46,1.454,1.447,1.443,1.44,1.437,1.433,1.43,1.423,1.417,1.41,1.401,1.395,1.385,1.376,1.367,1.358,1.352,1.346,1.34,1.337,1.334,1.329,1.326,1.323,1.32,1.315,1.309,1.304,1.298,1.295,1.287,1.282,1.274,1.269,1.264,1.259,1.253,1.248,1.243,1.238,1.236,1.231,1.224,1.219,1.214,1.212,1.207,1.202,1.198,1.195,1.193,1.191,1.188,1.186,1.184,1.184,1.184,1.182,1.182,1.182,1.179,1.179,1.177,1.175,1.171,1.166,1.162,1.16,1.155
